778.824560 -777.043123 320.000000
778.314527 -775.109249 320.000000
777.804495 -773.175376 320.000000
777.294462 -771.241502 320.000000
776.784430 -769.307629 320.000000
776.274397 -767.373755 320.000000
775.764364 -765.439882 320.000000
775.254332 -763.506008 320.000000
774.744299 -761.572135 320.000000
774.234267 -759.638261 320.000000
773.724234 -757.704388 320.000000
773.214202 -755.770514 320.000000
772.704169 -753.836641 320.000000
772.194136 -751.902767 320.000000
771.684104 -749.968894 320.000000
771.174071 -748.035020 320.000000
770.664039 -746.101147 320.000000
770.154006 -744.167273 320.000000
769.643974 -742.233400 320.000000
769.133941 -740.299526 320.000000
768.623908 -738.365653 320.000000
832.000000 -1100.000000 32.000000
832.220863 -1100.000000 33.987767
832.441726 -1100.000000 35.975535
832.662589 -1100.000000 37.963302
832.883452 -1100.000000 39.951070
833.104315 -1100.000000 41.938837
833.325178 -1100.000000 43.926605
833.546041 -1100.000000 45.914372
833.766904 -1100.000000 47.902140
833.987767 -1100.000000 49.889907
834.208631 -1100.000000 51.877675
834.429494 -1100.000000 53.865442
834.650357 -1100.000000 55.853210
834.871220 -1100.000000 57.840977
835.092083 -1100.000000 59.828745
835.312946 -1100.000000 61.816512
835.533809 -1100.000000 63.804280
835.754672 -1100.000000 65.792047
835.975535 -1100.000000 67.779814
836.196398 -1100.000000 69.767582
836.417261 -1100.000000 71.755349
836.638124 -1100.000000 73.743117
836.858987 -1100.000000 75.730884
837.079850 -1100.000000 77.718652
837.300713 -1100.000000 79.706419
837.521576 -1100.000000 81.694187
837.742439 -1100.000000 83.681954
837.963302 -1100.000000 85.669722
838.184165 -1100.000000 87.657489
838.405029 -1100.000000 89.645257
838.625892 -1100.000000 91.633024
838.846755 -1100.000000 93.620792
839.067618 -1100.000000 95.608559
839.288481 -1100.000000 97.596326
839.509344 -1100.000000 99.584094
839.730207 -1100.000000 101.571861
839.951070 -1100.000000 103.559629
840.171933 -1100.000000 105.547396
840.392796 -1100.000000 107.535164
840.613659 -1100.000000 109.522931
840.834522 -1100.000000 111.510699
841.055385 -1100.000000 113.498466
841.276248 -1100.000000 115.486234
841.497111 -1100.000000 117.474001
841.717974 -1100.000000 119.461769
841.938837 -1100.000000 121.449536
842.159700 -1100.000000 123.437304
842.380563 -1100.000000 125.425071
842.601427 -1100.000000 127.412839
842.822290 -1100.000000 129.400606
843.043153 -1100.000000 131.388373
843.264016 -1100.000000 133.376141
843.484879 -1100.000000 135.363908
843.705742 -1100.000000 137.351676
843.926605 -1100.000000 139.339443
844.147468 -1100.000000 141.327211
844.368331 -1100.000000 143.314978
844.589194 -1100.000000 145.302746
844.810057 -1100.000000 147.290513
845.030920 -1100.000000 149.278281
845.251783 -1100.000000 151.266048
845.472646 -1100.000000 153.253816
845.693509 -1100.000000 155.241583
845.914372 -1100.000000 157.229351
846.135235 -1100.000000 159.217118
846.356098 -1100.000000 161.204886
846.576961 -1100.000000 163.192653
846.797824 -1100.000000 165.180420
847.018688 -1100.000000 167.168188
847.239551 -1100.000000 169.155955
847.460414 -1100.000000 171.143723
847.681277 -1100.000000 173.131490
847.902140 -1100.000000 175.119258
848.123003 -1100.000000 177.107025
848.343866 -1100.000000 179.094793
848.564729 -1100.000000 181.082560
848.785592 -1100.000000 183.070328
849.006455 -1100.000000 185.058095
849.227318 -1100.000000 187.045863
849.448181 -1100.000000 189.033630
849.669044 -1100.000000 191.021398
849.889907 -1100.000000 193.009165
850.110770 -1100.000000 194.996932
850.331633 -1100.000000 196.984700
850.552496 -1100.000000 198.972467
850.773359 -1100.000000 200.960235
850.994222 -1100.000000 202.948002
851.215086 -1100.000000 204.935770
851.435949 -1100.000000 206.923537
851.656812 -1100.000000 208.911305
851.877675 -1100.000000 210.899072
852.098538 -1100.000000 212.886840
852.319401 -1100.000000 214.874607
852.540264 -1100.000000 216.862375
852.761127 -1100.000000 218.850142
852.981990 -1100.000000 220.837910
853.202853 -1100.000000 222.825677
853.423716 -1100.000000 224.813445
853.644579 -1100.000000 226.801212
853.865442 -1100.000000 228.788979
854.086305 -1100.000000 230.776747
854.307168 -1100.000000 232.764514
854.528031 -1100.000000 234.752282
854.748894 -1100.000000 236.740049
854.969757 -1100.000000 238.727817
855.190620 -1100.000000 240.715584
855.411484 -1100.000000 242.703352
855.632347 -1100.000000 244.691119
855.853210 -1100.000000 246.678887
856.074073 -1100.000000 248.666654
856.294936 -1100.000000 250.654422
856.515799 -1100.000000 252.642189
856.736662 -1100.000000 254.629957
856.957525 -1100.000000 256.617724
857.178388 -1100.000000 258.605492
857.399251 -1100.000000 260.593259
857.620114 -1100.000000 262.581026
857.840977 -1100.000000 264.568794
858.061840 -1100.000000 266.556561
858.282703 -1100.000000 268.544329
858.503566 -1100.000000 270.532096
858.724429 -1100.000000 272.519864
858.945292 -1100.000000 274.507631
859.166155 -1100.000000 276.495399
859.387018 -1100.000000 278.483166
859.607882 -1100.000000 280.470934
859.828745 -1100.000000 282.458701
860.049608 -1100.000000 284.446469
860.270471 -1100.000000 286.434236
860.491334 -1100.000000 288.422004
860.712197 -1100.000000 290.409771
860.933060 -1100.000000 292.397538
861.153923 -1100.000000 294.385306
861.374786 -1100.000000 296.373073
861.595649 -1100.000000 298.360841
861.816512 -1100.000000 300.348608
862.037375 -1100.000000 302.336376
862.258238 -1100.000000 304.324143
862.479101 -1100.000000 306.311911
862.699964 -1100.000000 308.299678
862.920827 -1100.000000 310.287446
863.141690 -1100.000000 312.275213
863.362553 -1100.000000 314.262981
863.583416 -1100.000000 316.250748
512.000000 -1100.000000 -256.000000
513.486588 -1100.000000 -254.662071
514.973177 -1100.000000 -253.324141
516.459765 -1100.000000 -251.986212
517.946353 -1100.000000 -250.648282
519.432941 -1100.000000 -249.310353
520.919530 -1100.000000 -247.972423
522.406118 -1100.000000 -246.634494
523.892706 -1100.000000 -245.296564
525.379295 -1100.000000 -243.958635
526.865883 -1100.000000 -242.620705
528.352471 -1100.000000 -241.282776
529.839060 -1100.000000 -239.944846
531.325648 -1100.000000 -238.606917
532.812236 -1100.000000 -237.268988
534.298824 -1100.000000 -235.931058
535.785413 -1100.000000 -234.593129
537.272001 -1100.000000 -233.255199
538.758589 -1100.000000 -231.917270
540.245178 -1100.000000 -230.579340
541.731766 -1100.000000 -229.241411
543.218354 -1100.000000 -227.903481
544.704942 -1100.000000 -226.565552
546.191531 -1100.000000 -225.227622
547.678119 -1100.000000 -223.889693
549.164707 -1100.000000 -222.551763
550.651296 -1100.000000 -221.213834
552.137884 -1100.000000 -219.875904
553.624472 -1100.000000 -218.537975
555.111060 -1100.000000 -217.200046
556.597649 -1100.000000 -215.862116
558.084237 -1100.000000 -214.524187
559.570825 -1100.000000 -213.186257
561.057414 -1100.000000 -211.848328
562.544002 -1100.000000 -210.510398
564.030590 -1100.000000 -209.172469
565.517179 -1100.000000 -207.834539
567.003767 -1100.000000 -206.496610
568.490355 -1100.000000 -205.158680
569.976943 -1100.000000 -203.820751
571.463532 -1100.000000 -202.482821
572.950120 -1100.000000 -201.144892
574.436708 -1100.000000 -199.806963
575.923297 -1100.000000 -198.469033
577.409885 -1100.000000 -197.131104
578.896473 -1100.000000 -195.793174
580.383061 -1100.000000 -194.455245
581.869650 -1100.000000 -193.117315
583.356238 -1100.000000 -191.779386
584.842826 -1100.000000 -190.441456
586.329415 -1100.000000 -189.103527
587.816003 -1100.000000 -187.765597
589.302591 -1100.000000 -186.427668
590.789180 -1100.000000 -185.089738
592.275768 -1100.000000 -183.751809
593.762356 -1100.000000 -182.413880
595.248944 -1100.000000 -181.075950
596.735533 -1100.000000 -179.738021
598.222121 -1100.000000 -178.400091
599.708709 -1100.000000 -177.062162
601.195298 -1100.000000 -175.724232
602.681886 -1100.000000 -174.386303
604.168474 -1100.000000 -173.048373
605.655062 -1100.000000 -171.710444
607.141651 -1100.000000 -170.372514
608.628239 -1100.000000 -169.034585
610.114827 -1100.000000 -167.696655
611.601416 -1100.000000 -166.358726
613.088004 -1100.000000 -165.020796
614.574592 -1100.000000 -163.682867
616.061180 -1100.000000 -162.344938
617.547769 -1100.000000 -161.007008
619.034357 -1100.000000 -159.669079
620.520945 -1100.000000 -158.331149
622.007534 -1100.000000 -156.993220
623.494122 -1100.000000 -155.655290
624.980710 -1100.000000 -154.317361
626.467299 -1100.000000 -152.979431
627.953887 -1100.000000 -151.641502
629.440475 -1100.000000 -150.303572
630.927063 -1100.000000 -148.965643
632.413652 -1100.000000 -147.627713
633.900240 -1100.000000 -146.289784
635.386828 -1100.000000 -144.951855
636.873417 -1100.000000 -143.613925
638.360005 -1100.000000 -142.275996
639.846593 -1100.000000 -140.938066
641.333181 -1100.000000 -139.600137
642.819770 -1100.000000 -138.262207
644.306358 -1100.000000 -136.924278
645.792946 -1100.000000 -135.586348
647.279535 -1100.000000 -134.248419
648.766123 -1100.000000 -132.910489
650.252711 -1100.000000 -131.572560
651.739299 -1100.000000 -130.234630
653.225888 -1100.000000 -128.896701
654.712476 -1100.000000 -127.558772
656.199064 -1100.000000 -126.220842
657.685653 -1100.000000 -124.882913
659.172241 -1100.000000 -123.544983
660.658829 -1100.000000 -122.207054
662.145418 -1100.000000 -120.869124
663.632006 -1100.000000 -119.531195
665.118594 -1100.000000 -118.193265
666.605182 -1100.000000 -116.855336
668.091771 -1100.000000 -115.517406
669.578359 -1100.000000 -114.179477
671.064947 -1100.000000 -112.841547
672.551536 -1100.000000 -111.503618
674.038124 -1100.000000 -110.165689
675.524712 -1100.000000 -108.827759
677.011300 -1100.000000 -107.489830
678.497889 -1100.000000 -106.151900
679.984477 -1100.000000 -104.813971
681.471065 -1100.000000 -103.476041
682.957654 -1100.000000 -102.138112
684.444242 -1100.000000 -100.800182
685.930830 -1100.000000 -99.462253
687.417419 -1100.000000 -98.124323
688.904007 -1100.000000 -96.786394
690.390595 -1100.000000 -95.448464
691.877183 -1100.000000 -94.110535
693.363772 -1100.000000 -92.772605
694.850360 -1100.000000 -91.434676
696.336948 -1100.000000 -90.096747
697.823537 -1100.000000 -88.758817
699.310125 -1100.000000 -87.420888
700.796713 -1100.000000 -86.082958
702.283301 -1100.000000 -84.745029
703.769890 -1100.000000 -83.407099
705.256478 -1100.000000 -82.069170
706.743066 -1100.000000 -80.731240
708.229655 -1100.000000 -79.393311
709.716243 -1100.000000 -78.055381
711.202831 -1100.000000 -76.717452
712.689419 -1100.000000 -75.379522
714.176008 -1100.000000 -74.041593
715.662596 -1100.000000 -72.703664
717.149184 -1100.000000 -71.365734
718.635773 -1100.000000 -70.027805
720.122361 -1100.000000 -68.689875
721.608949 -1100.000000 -67.351946
723.095538 -1100.000000 -66.014016
724.582126 -1100.000000 -64.676087
726.068714 -1100.000000 -63.338157
727.555302 -1100.000000 -62.000228
729.041891 -1100.000000 -60.662298
730.528479 -1100.000000 -59.324369
732.015067 -1100.000000 -57.986439
733.501656 -1100.000000 -56.648510
734.988244 -1100.000000 -55.310581
736.474832 -1100.000000 -53.972651
737.961420 -1100.000000 -52.634722
739.448009 -1100.000000 -51.296792
740.934597 -1100.000000 -49.958863
742.421185 -1100.000000 -48.620933
743.907774 -1100.000000 -47.283004
745.394362 -1100.000000 -45.945074
746.880950 -1100.000000 -44.607145
748.367539 -1100.000000 -43.269215
749.854127 -1100.000000 -41.931286
751.340715 -1100.000000 -40.593356
752.827303 -1100.000000 -39.255427
754.313892 -1100.000000 -37.917497
755.800480 -1100.000000 -36.579568
757.287068 -1100.000000 -35.241639
758.773657 -1100.000000 -33.903709
760.260245 -1100.000000 -32.565780
761.746833 -1100.000000 -31.227850
763.233421 -1100.000000 -29.889921
764.720010 -1100.000000 -28.551991
766.206598 -1100.000000 -27.214062
767.693186 -1100.000000 -25.876132
769.179775 -1100.000000 -24.538203
770.666363 -1100.000000 -23.200273
772.152951 -1100.000000 -21.862344
773.639539 -1100.000000 -20.524414
775.126128 -1100.000000 -19.186485
776.612716 -1100.000000 -17.848556
778.099304 -1100.000000 -16.510626
779.585893 -1100.000000 -15.172697
781.072481 -1100.000000 -13.834767
782.559069 -1100.000000 -12.496838
784.045658 -1100.000000 -11.158908
785.532246 -1100.000000 -9.820979
787.018834 -1100.000000 -8.483049
788.505422 -1100.000000 -7.145120
789.992011 -1100.000000 -5.807190
791.478599 -1100.000000 -4.469261
792.965187 -1100.000000 -3.131331
794.451776 -1100.000000 -1.793402
795.938364 -1100.000000 -0.455473
797.424952 -1100.000000 0.882457
798.911540 -1100.000000 2.220386
800.398129 -1100.000000 3.558316
801.884717 -1100.000000 4.896245
803.371305 -1100.000000 6.234175
804.857894 -1100.000000 7.572104
806.344482 -1100.000000 8.910034
807.831070 -1100.000000 10.247963
809.317658 -1100.000000 11.585893
810.804247 -1100.000000 12.923822
812.290835 -1100.000000 14.261752
813.777423 -1100.000000 15.599681
815.264012 -1100.000000 16.937611
816.750600 -1100.000000 18.275540
818.237188 -1100.000000 19.613469
819.723777 -1100.000000 20.951399
821.210365 -1100.000000 22.289328
822.696953 -1100.000000 23.627258
824.183541 -1100.000000 24.965187
825.670130 -1100.000000 26.303117
827.156718 -1100.000000 27.641046
828.643306 -1100.000000 28.978976
830.129895 -1100.000000 30.316905
192.000000 -908.000000 -268.000000
193.714100 -909.028460 -267.935721
195.428200 -910.056920 -267.871443
197.142300 -911.085380 -267.807164
198.856400 -912.113840 -267.742885
200.570499 -913.142300 -267.678606
202.284599 -914.170760 -267.614328
203.998699 -915.199220 -267.550049
205.712799 -916.227679 -267.485770
207.426899 -917.256139 -267.421491
209.140999 -918.284599 -267.357213
210.855099 -919.313059 -267.292934
212.569199 -920.341519 -267.228655
214.283298 -921.369979 -267.164376
215.997398 -922.398439 -267.100098
217.711498 -923.426899 -267.035819
219.425598 -924.455359 -266.971540
221.139698 -925.483819 -266.907261
222.853798 -926.512279 -266.842983
224.567898 -927.540739 -266.778704
226.281998 -928.569199 -266.714425
227.996098 -929.597659 -266.650146
229.710197 -930.626118 -266.585868
231.424297 -931.654578 -266.521589
233.138397 -932.683038 -266.457310
234.852497 -933.711498 -266.393031
236.566597 -934.739958 -266.328753
238.280697 -935.768418 -266.264474
239.994797 -936.796878 -266.200195
241.708897 -937.825338 -266.135916
243.422997 -938.853798 -266.071638
245.137096 -939.882258 -266.007359
246.851196 -940.910718 -265.943080
248.565296 -941.939178 -265.878801
250.279396 -942.967638 -265.814523
251.993496 -943.996098 -265.750244
253.707596 -945.024558 -265.685965
255.421696 -946.053017 -265.621686
257.135796 -947.081477 -265.557408
258.849895 -948.109937 -265.493129
260.563995 -949.138397 -265.428850
262.278095 -950.166857 -265.364571
263.992195 -951.195317 -265.300293
265.706295 -952.223777 -265.236014
267.420395 -953.252237 -265.171735
269.134495 -954.280697 -265.107456
270.848595 -955.309157 -265.043178
272.562695 -956.337617 -264.978899
274.276794 -957.366077 -264.914620
275.990894 -958.394537 -264.850341
277.704994 -959.422997 -264.786063
279.419094 -960.451456 -264.721784
281.133194 -961.479916 -264.657505
282.847294 -962.508376 -264.593226
284.561394 -963.536836 -264.528948
286.275494 -964.565296 -264.464669
287.989594 -965.593756 -264.400390
289.703693 -966.622216 -264.336111
291.417793 -967.650676 -264.271833
293.131893 -968.679136 -264.207554
294.845993 -969.707596 -264.143275
296.560093 -970.736056 -264.078997
298.274193 -971.764516 -264.014718
299.988293 -972.792976 -263.950439
301.702393 -973.821436 -263.886160
303.416492 -974.849895 -263.821882
305.130592 -975.878355 -263.757603
306.844692 -976.906815 -263.693324
308.558792 -977.935275 -263.629045
310.272892 -978.963735 -263.564767
311.986992 -979.992195 -263.500488
313.701092 -981.020655 -263.436209
315.415192 -982.049115 -263.371930
317.129292 -983.077575 -263.307652
318.843391 -984.106035 -263.243373
320.557491 -985.134495 -263.179094
322.271591 -986.162955 -263.114815
323.985691 -987.191415 -263.050537
325.699791 -988.219875 -262.986258
327.413891 -989.248335 -262.921979
329.127991 -990.276794 -262.857700
330.842091 -991.305254 -262.793422
332.556191 -992.333714 -262.729143
334.270290 -993.362174 -262.664864
335.984390 -994.390634 -262.600585
337.698490 -995.419094 -262.536307
339.412590 -996.447554 -262.472028
341.126690 -997.476014 -262.407749
342.840790 -998.504474 -262.343470
344.554890 -999.532934 -262.279192
346.268990 -1000.561394 -262.214913
347.983089 -1001.589854 -262.150634
349.697189 -1002.618314 -262.086355
351.411289 -1003.646774 -262.022077
353.125389 -1004.675233 -261.957798
354.839489 -1005.703693 -261.893519
356.553589 -1006.732153 -261.829240
358.267689 -1007.760613 -261.764962
359.981789 -1008.789073 -261.700683
361.695889 -1009.817533 -261.636404
363.409988 -1010.845993 -261.572125
365.124088 -1011.874453 -261.507847
366.838188 -1012.902913 -261.443568
368.552288 -1013.931373 -261.379289
370.266388 -1014.959833 -261.315010
371.980488 -1015.988293 -261.250732
373.694588 -1017.016753 -261.186453
375.408688 -1018.045213 -261.122174
377.122788 -1019.073673 -261.057895
378.836887 -1020.102132 -260.993617
380.550987 -1021.130592 -260.929338
382.265087 -1022.159052 -260.865059
383.979187 -1023.187512 -260.800780
385.693287 -1024.215972 -260.736502
387.407387 -1025.244432 -260.672223
389.121487 -1026.272892 -260.607944
390.835587 -1027.301352 -260.543666
392.549686 -1028.329812 -260.479387
394.263786 -1029.358272 -260.415108
395.977886 -1030.386732 -260.350829
397.691986 -1031.415192 -260.286551
399.406086 -1032.443652 -260.222272
401.120186 -1033.472112 -260.157993
402.834286 -1034.500571 -260.093714
404.548386 -1035.529031 -260.029436
406.262486 -1036.557491 -259.965157
407.976585 -1037.585951 -259.900878
409.690685 -1038.614411 -259.836599
411.404785 -1039.642871 -259.772321
413.118885 -1040.671331 -259.708042
414.832985 -1041.699791 -259.643763
416.547085 -1042.728251 -259.579484
418.261185 -1043.756711 -259.515206
419.975285 -1044.785171 -259.450927
421.689385 -1045.813631 -259.386648
423.403484 -1046.842091 -259.322369
425.117584 -1047.870551 -259.258091
426.831684 -1048.899011 -259.193812
428.545784 -1049.927470 -259.129533
430.259884 -1050.955930 -259.065254
431.973984 -1051.984390 -259.000976
433.688084 -1053.012850 -258.936697
435.402184 -1054.041310 -258.872418
437.116283 -1055.069770 -258.808139
438.830383 -1056.098230 -258.743861
440.544483 -1057.126690 -258.679582
442.258583 -1058.155150 -258.615303
443.972683 -1059.183610 -258.551024
445.686783 -1060.212070 -258.486746
447.400883 -1061.240530 -258.422467
449.114983 -1062.268990 -258.358188
450.829083 -1063.297450 -258.293909
452.543182 -1064.325909 -258.229631
454.257282 -1065.354369 -258.165352
455.971382 -1066.382829 -258.101073
457.685482 -1067.411289 -258.036794
459.399582 -1068.439749 -257.972516
461.113682 -1069.468209 -257.908237
462.827782 -1070.496669 -257.843958
464.541882 -1071.525129 -257.779679
466.255982 -1072.553589 -257.715401
467.970081 -1073.582049 -257.651122
469.684181 -1074.610509 -257.586843
471.398281 -1075.638969 -257.522564
473.112381 -1076.667429 -257.458286
474.826481 -1077.695889 -257.394007
476.540581 -1078.724348 -257.329728
478.254681 -1079.752808 -257.265449
479.968781 -1080.781268 -257.201171
481.682880 -1081.809728 -257.136892
483.396980 -1082.838188 -257.072613
485.111080 -1083.866648 -257.008334
486.825180 -1084.895108 -256.944056
488.539280 -1085.923568 -256.879777
490.253380 -1086.952028 -256.815498
491.967480 -1087.980488 -256.751220
493.681580 -1089.008948 -256.686941
495.395680 -1090.037408 -256.622662
497.109779 -1091.065868 -256.558383
498.823879 -1092.094328 -256.494105
500.537979 -1093.122788 -256.429826
502.252079 -1094.151247 -256.365547
503.966179 -1095.179707 -256.301268
505.680279 -1096.208167 -256.236990
507.394379 -1097.236627 -256.172711
509.108479 -1098.265087 -256.108432
-448.000000 -908.000000 -268.000000
-446.000000 -908.000000 -268.000000
-444.000000 -908.000000 -268.000000
-442.000000 -908.000000 -268.000000
-440.000000 -908.000000 -268.000000
-438.000000 -908.000000 -268.000000
-436.000000 -908.000000 -268.000000
-434.000000 -908.000000 -268.000000
-432.000000 -908.000000 -268.000000
-430.000000 -908.000000 -268.000000
-428.000000 -908.000000 -268.000000
-426.000000 -908.000000 -268.000000
-424.000000 -908.000000 -268.000000
-422.000000 -908.000000 -268.000000
-420.000000 -908.000000 -268.000000
-418.000000 -908.000000 -268.000000
-416.000000 -908.000000 -268.000000
-414.000000 -908.000000 -268.000000
-412.000000 -908.000000 -268.000000
-410.000000 -908.000000 -268.000000
-408.000000 -908.000000 -268.000000
-406.000000 -908.000000 -268.000000
-404.000000 -908.000000 -268.000000
-402.000000 -908.000000 -268.000000
-400.000000 -908.000000 -268.000000
-398.000000 -908.000000 -268.000000
-396.000000 -908.000000 -268.000000
-394.000000 -908.000000 -268.000000
-392.000000 -908.000000 -268.000000
-390.000000 -908.000000 -268.000000
-388.000000 -908.000000 -268.000000
-386.000000 -908.000000 -268.000000
-384.000000 -908.000000 -268.000000
-382.000000 -908.000000 -268.000000
-380.000000 -908.000000 -268.000000
-378.000000 -908.000000 -268.000000
-376.000000 -908.000000 -268.000000
-374.000000 -908.000000 -268.000000
-372.000000 -908.000000 -268.000000
-370.000000 -908.000000 -268.000000
-368.000000 -908.000000 -268.000000
-366.000000 -908.000000 -268.000000
-364.000000 -908.000000 -268.000000
-362.000000 -908.000000 -268.000000
-360.000000 -908.000000 -268.000000
-358.000000 -908.000000 -268.000000
-356.000000 -908.000000 -268.000000
-354.000000 -908.000000 -268.000000
-352.000000 -908.000000 -268.000000
-350.000000 -908.000000 -268.000000
-348.000000 -908.000000 -268.000000
-346.000000 -908.000000 -268.000000
-344.000000 -908.000000 -268.000000
-342.000000 -908.000000 -268.000000
-340.000000 -908.000000 -268.000000
-338.000000 -908.000000 -268.000000
-336.000000 -908.000000 -268.000000
-334.000000 -908.000000 -268.000000
-332.000000 -908.000000 -268.000000
-330.000000 -908.000000 -268.000000
-328.000000 -908.000000 -268.000000
-326.000000 -908.000000 -268.000000
-324.000000 -908.000000 -268.000000
-322.000000 -908.000000 -268.000000
-320.000000 -908.000000 -268.000000
-318.000000 -908.000000 -268.000000
-316.000000 -908.000000 -268.000000
-314.000000 -908.000000 -268.000000
-312.000000 -908.000000 -268.000000
-310.000000 -908.000000 -268.000000
-308.000000 -908.000000 -268.000000
-306.000000 -908.000000 -268.000000
-304.000000 -908.000000 -268.000000
-302.000000 -908.000000 -268.000000
-300.000000 -908.000000 -268.000000
-298.000000 -908.000000 -268.000000
-296.000000 -908.000000 -268.000000
-294.000000 -908.000000 -268.000000
-292.000000 -908.000000 -268.000000
-290.000000 -908.000000 -268.000000
-288.000000 -908.000000 -268.000000
-286.000000 -908.000000 -268.000000
-284.000000 -908.000000 -268.000000
-282.000000 -908.000000 -268.000000
-280.000000 -908.000000 -268.000000
-278.000000 -908.000000 -268.000000
-276.000000 -908.000000 -268.000000
-274.000000 -908.000000 -268.000000
-272.000000 -908.000000 -268.000000
-270.000000 -908.000000 -268.000000
-268.000000 -908.000000 -268.000000
-266.000000 -908.000000 -268.000000
-264.000000 -908.000000 -268.000000
-262.000000 -908.000000 -268.000000
-260.000000 -908.000000 -268.000000
-258.000000 -908.000000 -268.000000
-256.000000 -908.000000 -268.000000
-254.000000 -908.000000 -268.000000
-252.000000 -908.000000 -268.000000
-250.000000 -908.000000 -268.000000
-248.000000 -908.000000 -268.000000
-246.000000 -908.000000 -268.000000
-244.000000 -908.000000 -268.000000
-242.000000 -908.000000 -268.000000
-240.000000 -908.000000 -268.000000
-238.000000 -908.000000 -268.000000
-236.000000 -908.000000 -268.000000
-234.000000 -908.000000 -268.000000
-232.000000 -908.000000 -268.000000
-230.000000 -908.000000 -268.000000
-228.000000 -908.000000 -268.000000
-226.000000 -908.000000 -268.000000
-224.000000 -908.000000 -268.000000
-222.000000 -908.000000 -268.000000
-220.000000 -908.000000 -268.000000
-218.000000 -908.000000 -268.000000
-216.000000 -908.000000 -268.000000
-214.000000 -908.000000 -268.000000
-212.000000 -908.000000 -268.000000
-210.000000 -908.000000 -268.000000
-208.000000 -908.000000 -268.000000
-206.000000 -908.000000 -268.000000
-204.000000 -908.000000 -268.000000
-202.000000 -908.000000 -268.000000
-200.000000 -908.000000 -268.000000
-198.000000 -908.000000 -268.000000
-196.000000 -908.000000 -268.000000
-194.000000 -908.000000 -268.000000
-192.000000 -908.000000 -268.000000
-190.000000 -908.000000 -268.000000
-188.000000 -908.000000 -268.000000
-186.000000 -908.000000 -268.000000
-184.000000 -908.000000 -268.000000
-182.000000 -908.000000 -268.000000
-180.000000 -908.000000 -268.000000
-178.000000 -908.000000 -268.000000
-176.000000 -908.000000 -268.000000
-174.000000 -908.000000 -268.000000
-172.000000 -908.000000 -268.000000
-170.000000 -908.000000 -268.000000
-168.000000 -908.000000 -268.000000
-166.000000 -908.000000 -268.000000
-164.000000 -908.000000 -268.000000
-162.000000 -908.000000 -268.000000
-160.000000 -908.000000 -268.000000
-158.000000 -908.000000 -268.000000
-156.000000 -908.000000 -268.000000
-154.000000 -908.000000 -268.000000
-152.000000 -908.000000 -268.000000
-150.000000 -908.000000 -268.000000
-148.000000 -908.000000 -268.000000
-146.000000 -908.000000 -268.000000
-144.000000 -908.000000 -268.000000
-142.000000 -908.000000 -268.000000
-140.000000 -908.000000 -268.000000
-138.000000 -908.000000 -268.000000
-136.000000 -908.000000 -268.000000
-134.000000 -908.000000 -268.000000
-132.000000 -908.000000 -268.000000
-130.000000 -908.000000 -268.000000
-128.000000 -908.000000 -268.000000
-126.000000 -908.000000 -268.000000
-124.000000 -908.000000 -268.000000
-122.000000 -908.000000 -268.000000
-120.000000 -908.000000 -268.000000
-118.000000 -908.000000 -268.000000
-116.000000 -908.000000 -268.000000
-114.000000 -908.000000 -268.000000
-112.000000 -908.000000 -268.000000
-110.000000 -908.000000 -268.000000
-108.000000 -908.000000 -268.000000
-106.000000 -908.000000 -268.000000
-104.000000 -908.000000 -268.000000
-102.000000 -908.000000 -268.000000
-100.000000 -908.000000 -268.000000
-98.000000 -908.000000 -268.000000
-96.000000 -908.000000 -268.000000
-94.000000 -908.000000 -268.000000
-92.000000 -908.000000 -268.000000
-90.000000 -908.000000 -268.000000
-88.000000 -908.000000 -268.000000
-86.000000 -908.000000 -268.000000
-84.000000 -908.000000 -268.000000
-82.000000 -908.000000 -268.000000
-80.000000 -908.000000 -268.000000
-78.000000 -908.000000 -268.000000
-76.000000 -908.000000 -268.000000
-74.000000 -908.000000 -268.000000
-72.000000 -908.000000 -268.000000
-70.000000 -908.000000 -268.000000
-68.000000 -908.000000 -268.000000
-66.000000 -908.000000 -268.000000
-64.000000 -908.000000 -268.000000
-62.000000 -908.000000 -268.000000
-60.000000 -908.000000 -268.000000
-58.000000 -908.000000 -268.000000
-56.000000 -908.000000 -268.000000
-54.000000 -908.000000 -268.000000
-52.000000 -908.000000 -268.000000
-50.000000 -908.000000 -268.000000
-48.000000 -908.000000 -268.000000
-46.000000 -908.000000 -268.000000
-44.000000 -908.000000 -268.000000
-42.000000 -908.000000 -268.000000
-40.000000 -908.000000 -268.000000
-38.000000 -908.000000 -268.000000
-36.000000 -908.000000 -268.000000
-34.000000 -908.000000 -268.000000
-32.000000 -908.000000 -268.000000
-30.000000 -908.000000 -268.000000
-28.000000 -908.000000 -268.000000
-26.000000 -908.000000 -268.000000
-24.000000 -908.000000 -268.000000
-22.000000 -908.000000 -268.000000
-20.000000 -908.000000 -268.000000
-18.000000 -908.000000 -268.000000
-16.000000 -908.000000 -268.000000
-14.000000 -908.000000 -268.000000
-12.000000 -908.000000 -268.000000
-10.000000 -908.000000 -268.000000
-8.000000 -908.000000 -268.000000
-6.000000 -908.000000 -268.000000
-4.000000 -908.000000 -268.000000
-2.000000 -908.000000 -268.000000
0.000000 -908.000000 -268.000000
2.000000 -908.000000 -268.000000
4.000000 -908.000000 -268.000000
6.000000 -908.000000 -268.000000
8.000000 -908.000000 -268.000000
10.000000 -908.000000 -268.000000
12.000000 -908.000000 -268.000000
14.000000 -908.000000 -268.000000
16.000000 -908.000000 -268.000000
18.000000 -908.000000 -268.000000
20.000000 -908.000000 -268.000000
22.000000 -908.000000 -268.000000
24.000000 -908.000000 -268.000000
26.000000 -908.000000 -268.000000
28.000000 -908.000000 -268.000000
30.000000 -908.000000 -268.000000
32.000000 -908.000000 -268.000000
34.000000 -908.000000 -268.000000
36.000000 -908.000000 -268.000000
38.000000 -908.000000 -268.000000
40.000000 -908.000000 -268.000000
42.000000 -908.000000 -268.000000
44.000000 -908.000000 -268.000000
46.000000 -908.000000 -268.000000
48.000000 -908.000000 -268.000000
50.000000 -908.000000 -268.000000
52.000000 -908.000000 -268.000000
54.000000 -908.000000 -268.000000
56.000000 -908.000000 -268.000000
58.000000 -908.000000 -268.000000
60.000000 -908.000000 -268.000000
62.000000 -908.000000 -268.000000
64.000000 -908.000000 -268.000000
66.000000 -908.000000 -268.000000
68.000000 -908.000000 -268.000000
70.000000 -908.000000 -268.000000
72.000000 -908.000000 -268.000000
74.000000 -908.000000 -268.000000
76.000000 -908.000000 -268.000000
78.000000 -908.000000 -268.000000
80.000000 -908.000000 -268.000000
82.000000 -908.000000 -268.000000
84.000000 -908.000000 -268.000000
86.000000 -908.000000 -268.000000
88.000000 -908.000000 -268.000000
90.000000 -908.000000 -268.000000
92.000000 -908.000000 -268.000000
94.000000 -908.000000 -268.000000
96.000000 -908.000000 -268.000000
98.000000 -908.000000 -268.000000
100.000000 -908.000000 -268.000000
102.000000 -908.000000 -268.000000
104.000000 -908.000000 -268.000000
106.000000 -908.000000 -268.000000
108.000000 -908.000000 -268.000000
110.000000 -908.000000 -268.000000
112.000000 -908.000000 -268.000000
114.000000 -908.000000 -268.000000
116.000000 -908.000000 -268.000000
118.000000 -908.000000 -268.000000
120.000000 -908.000000 -268.000000
122.000000 -908.000000 -268.000000
124.000000 -908.000000 -268.000000
126.000000 -908.000000 -268.000000
128.000000 -908.000000 -268.000000
130.000000 -908.000000 -268.000000
132.000000 -908.000000 -268.000000
134.000000 -908.000000 -268.000000
136.000000 -908.000000 -268.000000
138.000000 -908.000000 -268.000000
140.000000 -908.000000 -268.000000
142.000000 -908.000000 -268.000000
144.000000 -908.000000 -268.000000
146.000000 -908.000000 -268.000000
148.000000 -908.000000 -268.000000
150.000000 -908.000000 -268.000000
152.000000 -908.000000 -268.000000
154.000000 -908.000000 -268.000000
156.000000 -908.000000 -268.000000
158.000000 -908.000000 -268.000000
160.000000 -908.000000 -268.000000
162.000000 -908.000000 -268.000000
164.000000 -908.000000 -268.000000
166.000000 -908.000000 -268.000000
168.000000 -908.000000 -268.000000
170.000000 -908.000000 -268.000000
172.000000 -908.000000 -268.000000
174.000000 -908.000000 -268.000000
176.000000 -908.000000 -268.000000
178.000000 -908.000000 -268.000000
180.000000 -908.000000 -268.000000
182.000000 -908.000000 -268.000000
184.000000 -908.000000 -268.000000
186.000000 -908.000000 -268.000000
188.000000 -908.000000 -268.000000
-448.000000 -908.000000 332.500000
-448.000000 -908.000000 330.500000
-448.000000 -908.000000 328.500000
-448.000000 -908.000000 326.500000
-448.000000 -908.000000 324.500000
-448.000000 -908.000000 322.500000
-448.000000 -908.000000 320.500000
-448.000000 -908.000000 318.500000
-448.000000 -908.000000 316.500000
-448.000000 -908.000000 314.500000
-448.000000 -908.000000 312.500000
-448.000000 -908.000000 310.500000
-448.000000 -908.000000 308.500000
-448.000000 -908.000000 306.500000
-448.000000 -908.000000 304.500000
-448.000000 -908.000000 302.500000
-448.000000 -908.000000 300.500000
-448.000000 -908.000000 298.500000
-448.000000 -908.000000 296.500000
-448.000000 -908.000000 294.500000
-448.000000 -908.000000 292.500000
-448.000000 -908.000000 290.500000
-448.000000 -908.000000 288.500000
-448.000000 -908.000000 286.500000
-448.000000 -908.000000 284.500000
-448.000000 -908.000000 282.500000
-448.000000 -908.000000 280.500000
-448.000000 -908.000000 278.500000
-448.000000 -908.000000 276.500000
-448.000000 -908.000000 274.500000
-448.000000 -908.000000 272.500000
-448.000000 -908.000000 270.500000
-448.000000 -908.000000 268.500000
-448.000000 -908.000000 266.500000
-448.000000 -908.000000 264.500000
-448.000000 -908.000000 262.500000
-448.000000 -908.000000 260.500000
-448.000000 -908.000000 258.500000
-448.000000 -908.000000 256.500000
-448.000000 -908.000000 254.500000
-448.000000 -908.000000 252.500000
-448.000000 -908.000000 250.500000
-448.000000 -908.000000 248.500000
-448.000000 -908.000000 246.500000
-448.000000 -908.000000 244.500000
-448.000000 -908.000000 242.500000
-448.000000 -908.000000 240.500000
-448.000000 -908.000000 238.500000
-448.000000 -908.000000 236.500000
-448.000000 -908.000000 234.500000
-448.000000 -908.000000 232.500000
-448.000000 -908.000000 230.500000
-448.000000 -908.000000 228.500000
-448.000000 -908.000000 226.500000
-448.000000 -908.000000 224.500000
-448.000000 -908.000000 222.500000
-448.000000 -908.000000 220.500000
-448.000000 -908.000000 218.500000
-448.000000 -908.000000 216.500000
-448.000000 -908.000000 214.500000
-448.000000 -908.000000 212.500000
-448.000000 -908.000000 210.500000
-448.000000 -908.000000 208.500000
-448.000000 -908.000000 206.500000
-448.000000 -908.000000 204.500000
-448.000000 -908.000000 202.500000
-448.000000 -908.000000 200.500000
-448.000000 -908.000000 198.500000
-448.000000 -908.000000 196.500000
-448.000000 -908.000000 194.500000
-448.000000 -908.000000 192.500000
-448.000000 -908.000000 190.500000
-448.000000 -908.000000 188.500000
-448.000000 -908.000000 186.500000
-448.000000 -908.000000 184.500000
-448.000000 -908.000000 182.500000
-448.000000 -908.000000 180.500000
-448.000000 -908.000000 178.500000
-448.000000 -908.000000 176.500000
-448.000000 -908.000000 174.500000
-448.000000 -908.000000 172.500000
-448.000000 -908.000000 170.500000
-448.000000 -908.000000 168.500000
-448.000000 -908.000000 166.500000
-448.000000 -908.000000 164.500000
-448.000000 -908.000000 162.500000
-448.000000 -908.000000 160.500000
-448.000000 -908.000000 158.500000
-448.000000 -908.000000 156.500000
-448.000000 -908.000000 154.500000
-448.000000 -908.000000 152.500000
-448.000000 -908.000000 150.500000
-448.000000 -908.000000 148.500000
-448.000000 -908.000000 146.500000
-448.000000 -908.000000 144.500000
-448.000000 -908.000000 142.500000
-448.000000 -908.000000 140.500000
-448.000000 -908.000000 138.500000
-448.000000 -908.000000 136.500000
-448.000000 -908.000000 134.500000
-448.000000 -908.000000 132.500000
-448.000000 -908.000000 130.500000
-448.000000 -908.000000 128.500000
-448.000000 -908.000000 126.500000
-448.000000 -908.000000 124.500000
-448.000000 -908.000000 122.500000
-448.000000 -908.000000 120.500000
-448.000000 -908.000000 118.500000
-448.000000 -908.000000 116.500000
-448.000000 -908.000000 114.500000
-448.000000 -908.000000 112.500000
-448.000000 -908.000000 110.500000
-448.000000 -908.000000 108.500000
-448.000000 -908.000000 106.500000
-448.000000 -908.000000 104.500000
-448.000000 -908.000000 102.500000
-448.000000 -908.000000 100.500000
-448.000000 -908.000000 98.500000
-448.000000 -908.000000 96.500000
-448.000000 -908.000000 94.500000
-448.000000 -908.000000 92.500000
-448.000000 -908.000000 90.500000
-448.000000 -908.000000 88.500000
-448.000000 -908.000000 86.500000
-448.000000 -908.000000 84.500000
-448.000000 -908.000000 82.500000
-448.000000 -908.000000 80.500000
-448.000000 -908.000000 78.500000
-448.000000 -908.000000 76.500000
-448.000000 -908.000000 74.500000
-448.000000 -908.000000 72.500000
-448.000000 -908.000000 70.500000
-448.000000 -908.000000 68.500000
-448.000000 -908.000000 66.500000
-448.000000 -908.000000 64.500000
-448.000000 -908.000000 62.500000
-448.000000 -908.000000 60.500000
-448.000000 -908.000000 58.500000
-448.000000 -908.000000 56.500000
-448.000000 -908.000000 54.500000
-448.000000 -908.000000 52.500000
-448.000000 -908.000000 50.500000
-448.000000 -908.000000 48.500000
-448.000000 -908.000000 46.500000
-448.000000 -908.000000 44.500000
-448.000000 -908.000000 42.500000
-448.000000 -908.000000 40.500000
-448.000000 -908.000000 38.500000
-448.000000 -908.000000 36.500000
-448.000000 -908.000000 34.500000
-448.000000 -908.000000 32.500000
-448.000000 -908.000000 30.500000
-448.000000 -908.000000 28.500000
-448.000000 -908.000000 26.500000
-448.000000 -908.000000 24.500000
-448.000000 -908.000000 22.500000
-448.000000 -908.000000 20.500000
-448.000000 -908.000000 18.500000
-448.000000 -908.000000 16.500000
-448.000000 -908.000000 14.500000
-448.000000 -908.000000 12.500000
-448.000000 -908.000000 10.500000
-448.000000 -908.000000 8.500000
-448.000000 -908.000000 6.500000
-448.000000 -908.000000 4.500000
-448.000000 -908.000000 2.500000
-448.000000 -908.000000 0.500000
-448.000000 -908.000000 -1.500000
-448.000000 -908.000000 -3.500000
-448.000000 -908.000000 -5.500000
-448.000000 -908.000000 -7.500000
-448.000000 -908.000000 -9.500000
-448.000000 -908.000000 -11.500000
-448.000000 -908.000000 -13.500000
-448.000000 -908.000000 -15.500000
-448.000000 -908.000000 -17.500000
-448.000000 -908.000000 -19.500000
-448.000000 -908.000000 -21.500000
-448.000000 -908.000000 -23.500000
-448.000000 -908.000000 -25.500000
-448.000000 -908.000000 -27.500000
-448.000000 -908.000000 -29.500000
-448.000000 -908.000000 -31.500000
-448.000000 -908.000000 -33.500000
-448.000000 -908.000000 -35.500000
-448.000000 -908.000000 -37.500000
-448.000000 -908.000000 -39.500000
-448.000000 -908.000000 -41.500000
-448.000000 -908.000000 -43.500000
-448.000000 -908.000000 -45.500000
-448.000000 -908.000000 -47.500000
-448.000000 -908.000000 -49.500000
-448.000000 -908.000000 -51.500000
-448.000000 -908.000000 -53.500000
-448.000000 -908.000000 -55.500000
-448.000000 -908.000000 -57.500000
-448.000000 -908.000000 -59.500000
-448.000000 -908.000000 -61.500000
-448.000000 -908.000000 -63.500000
-448.000000 -908.000000 -65.500000
-448.000000 -908.000000 -67.500000
-448.000000 -908.000000 -69.500000
-448.000000 -908.000000 -71.500000
-448.000000 -908.000000 -73.500000
-448.000000 -908.000000 -75.500000
-448.000000 -908.000000 -77.500000
-448.000000 -908.000000 -79.500000
-448.000000 -908.000000 -81.500000
-448.000000 -908.000000 -83.500000
-448.000000 -908.000000 -85.500000
-448.000000 -908.000000 -87.500000
-448.000000 -908.000000 -89.500000
-448.000000 -908.000000 -91.500000
-448.000000 -908.000000 -93.500000
-448.000000 -908.000000 -95.500000
-448.000000 -908.000000 -97.500000
-448.000000 -908.000000 -99.500000
-448.000000 -908.000000 -101.500000
-448.000000 -908.000000 -103.500000
-448.000000 -908.000000 -105.500000
-448.000000 -908.000000 -107.500000
-448.000000 -908.000000 -109.500000
-448.000000 -908.000000 -111.500000
-448.000000 -908.000000 -113.500000
-448.000000 -908.000000 -115.500000
-448.000000 -908.000000 -117.500000
-448.000000 -908.000000 -119.500000
-448.000000 -908.000000 -121.500000
-448.000000 -908.000000 -123.500000
-448.000000 -908.000000 -125.500000
-448.000000 -908.000000 -127.500000
-448.000000 -908.000000 -129.500000
-448.000000 -908.000000 -131.500000
-448.000000 -908.000000 -133.500000
-448.000000 -908.000000 -135.500000
-448.000000 -908.000000 -137.500000
-448.000000 -908.000000 -139.500000
-448.000000 -908.000000 -141.500000
-448.000000 -908.000000 -143.500000
-448.000000 -908.000000 -145.500000
-448.000000 -908.000000 -147.500000
-448.000000 -908.000000 -149.500000
-448.000000 -908.000000 -151.500000
-448.000000 -908.000000 -153.500000
-448.000000 -908.000000 -155.500000
-448.000000 -908.000000 -157.500000
-448.000000 -908.000000 -159.500000
-448.000000 -908.000000 -161.500000
-448.000000 -908.000000 -163.500000
-448.000000 -908.000000 -165.500000
-448.000000 -908.000000 -167.500000
-448.000000 -908.000000 -169.500000
-448.000000 -908.000000 -171.500000
-448.000000 -908.000000 -173.500000
-448.000000 -908.000000 -175.500000
-448.000000 -908.000000 -177.500000
-448.000000 -908.000000 -179.500000
-448.000000 -908.000000 -181.500000
-448.000000 -908.000000 -183.500000
-448.000000 -908.000000 -185.500000
-448.000000 -908.000000 -187.500000
-448.000000 -908.000000 -189.500000
-448.000000 -908.000000 -191.500000
-448.000000 -908.000000 -193.500000
-448.000000 -908.000000 -195.500000
-448.000000 -908.000000 -197.500000
-448.000000 -908.000000 -199.500000
-448.000000 -908.000000 -201.500000
-448.000000 -908.000000 -203.500000
-448.000000 -908.000000 -205.500000
-448.000000 -908.000000 -207.500000
-448.000000 -908.000000 -209.500000
-448.000000 -908.000000 -211.500000
-448.000000 -908.000000 -213.500000
-448.000000 -908.000000 -215.500000
-448.000000 -908.000000 -217.500000
-448.000000 -908.000000 -219.500000
-448.000000 -908.000000 -221.500000
-448.000000 -908.000000 -223.500000
-448.000000 -908.000000 -225.500000
-448.000000 -908.000000 -227.500000
-448.000000 -908.000000 -229.500000
-448.000000 -908.000000 -231.500000
-448.000000 -908.000000 -233.500000
-448.000000 -908.000000 -235.500000
-448.000000 -908.000000 -237.500000
-448.000000 -908.000000 -239.500000
-448.000000 -908.000000 -241.500000
-448.000000 -908.000000 -243.500000
-448.000000 -908.000000 -245.500000
-448.000000 -908.000000 -247.500000
-448.000000 -908.000000 -249.500000
-448.000000 -908.000000 -251.500000
-448.000000 -908.000000 -253.500000
-448.000000 -908.000000 -255.500000
-448.000000 -908.000000 -257.500000
-448.000000 -908.000000 -259.500000
-448.000000 -908.000000 -261.500000
-448.000000 -908.000000 -263.500000
-448.000000 -908.000000 -265.500000
-128.000000 -1100.000000 320.000000
-129.714025 -1098.971585 320.066954
-131.428049 -1097.943171 320.133908
-133.142074 -1096.914756 320.200862
-134.856098 -1095.886341 320.267816
-136.570123 -1094.857926 320.334770
-138.284147 -1093.829512 320.401725
-139.998172 -1092.801097 320.468679
-141.712197 -1091.772682 320.535633
-143.426221 -1090.744267 320.602587
-145.140246 -1089.715853 320.669541
-146.854270 -1088.687438 320.736495
-148.568295 -1087.659023 320.803449
-150.282320 -1086.630608 320.870403
-151.996344 -1085.602194 320.937357
-153.710369 -1084.573779 321.004311
-155.424393 -1083.545364 321.071265
-157.138418 -1082.516949 321.138219
-158.852442 -1081.488535 321.205174
-160.566467 -1080.460120 321.272128
-162.280492 -1079.431705 321.339082
-163.994516 -1078.403290 321.406036
-165.708541 -1077.374876 321.472990
-167.422565 -1076.346461 321.539944
-169.136590 -1075.318046 321.606898
-170.850614 -1074.289631 321.673852
-172.564639 -1073.261217 321.740806
-174.278664 -1072.232802 321.807760
-175.992688 -1071.204387 321.874714
-177.706713 -1070.175972 321.941668
-179.420737 -1069.147558 322.008623
-181.134762 -1068.119143 322.075577
-182.848787 -1067.090728 322.142531
-184.562811 -1066.062313 322.209485
-186.276836 -1065.033899 322.276439
-187.990860 -1064.005484 322.343393
-189.704885 -1062.977069 322.410347
-191.418909 -1061.948654 322.477301
-193.132934 -1060.920240 322.544255
-194.846959 -1059.891825 322.611209
-196.560983 -1058.863410 322.678163
-198.275008 -1057.834995 322.745117
-199.989032 -1056.806581 322.812072
-201.703057 -1055.778166 322.879026
-203.417081 -1054.749751 322.945980
-205.131106 -1053.721336 323.012934
-206.845131 -1052.692922 323.079888
-208.559155 -1051.664507 323.146842
-210.273180 -1050.636092 323.213796
-211.987204 -1049.607677 323.280750
-213.701229 -1048.579263 323.347704
-215.415254 -1047.550848 323.414658
-217.129278 -1046.522433 323.481612
-218.843303 -1045.494018 323.548567
-220.557327 -1044.465604 323.615521
-222.271352 -1043.437189 323.682475
-223.985376 -1042.408774 323.749429
-225.699401 -1041.380359 323.816383
-227.413426 -1040.351945 323.883337
-229.127450 -1039.323530 323.950291
-230.841475 -1038.295115 324.017245
-232.555499 -1037.266700 324.084199
-234.269524 -1036.238286 324.151153
-235.983548 -1035.209871 324.218107
-237.697573 -1034.181456 324.285061
-239.411598 -1033.153041 324.352016
-241.125622 -1032.124627 324.418970
-242.839647 -1031.096212 324.485924
-244.553671 -1030.067797 324.552878
-246.267696 -1029.039382 324.619832
-247.981721 -1028.010968 324.686786
-249.695745 -1026.982553 324.753740
-251.409770 -1025.954138 324.820694
-253.123794 -1024.925723 324.887648
-254.837819 -1023.897309 324.954602
-256.551843 -1022.868894 325.021556
-258.265868 -1021.840479 325.088510
-259.979893 -1020.812064 325.155465
-261.693917 -1019.783650 325.222419
-263.407942 -1018.755235 325.289373
-265.121966 -1017.726820 325.356327
-266.835991 -1016.698405 325.423281
-268.550015 -1015.669991 325.490235
-270.264040 -1014.641576 325.557189
-271.978065 -1013.613161 325.624143
-273.692089 -1012.584746 325.691097
-275.406114 -1011.556332 325.758051
-277.120138 -1010.527917 325.825005
-278.834163 -1009.499502 325.891959
-280.548188 -1008.471087 325.958914
-282.262212 -1007.442673 326.025868
-283.976237 -1006.414258 326.092822
-285.690261 -1005.385843 326.159776
-287.404286 -1004.357428 326.226730
-289.118310 -1003.329014 326.293684
-290.832335 -1002.300599 326.360638
-292.546360 -1001.272184 326.427592
-294.260384 -1000.243769 326.494546
-295.974409 -999.215355 326.561500
-297.688433 -998.186940 326.628454
-299.402458 -997.158525 326.695409
-301.116482 -996.130111 326.762363
-302.830507 -995.101696 326.829317
-304.544532 -994.073281 326.896271
-306.258556 -993.044866 326.963225
-307.972581 -992.016452 327.030179
-309.686605 -990.988037 327.097133
-311.400630 -989.959622 327.164087
-313.114655 -988.931207 327.231041
-314.828679 -987.902793 327.297995
-316.542704 -986.874378 327.364949
-318.256728 -985.845963 327.431903
-319.970753 -984.817548 327.498858
-321.684777 -983.789134 327.565812
-323.398802 -982.760719 327.632766
-325.112827 -981.732304 327.699720
-326.826851 -980.703889 327.766674
-328.540876 -979.675475 327.833628
-330.254900 -978.647060 327.900582
-331.968925 -977.618645 327.967536
-333.682949 -976.590230 328.034490
-335.396974 -975.561816 328.101444
-337.110999 -974.533401 328.168398
-338.825023 -973.504986 328.235352
-340.539048 -972.476571 328.302307
-342.253072 -971.448157 328.369261
-343.967097 -970.419742 328.436215
-345.681122 -969.391327 328.503169
-347.395146 -968.362912 328.570123
-349.109171 -967.334498 328.637077
-350.823195 -966.306083 328.704031
-352.537220 -965.277668 328.770985
-354.251244 -964.249253 328.837939
-355.965269 -963.220839 328.904893
-357.679294 -962.192424 328.971847
-359.393318 -961.164009 329.038801
-361.107343 -960.135594 329.105756
-362.821367 -959.107180 329.172710
