-416.000000 -1309.159776 -119.596789
-416.000000 -1309.645772 -117.656736
-416.000000 -1310.131768 -115.716682
-416.000000 -1310.617765 -113.776629
-416.000000 -1311.103761 -111.836575
-416.000000 -1311.589757 -109.896522
-416.000000 -1312.075754 -107.956468
-416.000000 -1312.561750 -106.016415
-416.000000 -1313.047746 -104.076361
-416.000000 -1313.533742 -102.136308
-416.000000 -1314.019739 -100.196254
-416.000000 -1314.505735 -98.256201
-416.000000 -1314.991731 -96.316147
-416.000000 -1315.477727 -94.376094
-416.000000 -1315.963724 -92.436040
-416.000000 -1316.449720 -90.495987
-416.000000 -1316.935716 -88.555933
-416.000000 -1317.421712 -86.615880
-416.000000 -1317.907709 -84.675826
-416.000000 -1318.393705 -82.735773
-416.000000 -1318.879701 -80.795719
-416.000000 -1319.365698 -78.855666
-416.000000 -1319.851694 -76.915612
-416.000000 -1320.337690 -74.975559
-416.000000 -1320.823686 -73.035505
-416.000000 -1321.309683 -71.095451
-416.000000 -1321.795679 -69.155398
-416.000000 -1322.281675 -67.215344
-416.000000 -1322.767671 -65.275291
-416.000000 -1323.253668 -63.335237
-416.000000 -1323.739664 -61.395184
-416.000000 -1324.225660 -59.455130
-416.000000 -1324.711656 -57.515077
-416.000000 -1325.197653 -55.575023
-416.000000 -1325.683649 -53.634970
-416.000000 -1326.169645 -51.694916
-416.000000 -1326.655642 -49.754863
-416.000000 -1327.141638 -47.814809
-416.000000 -1327.627634 -45.874756
-416.000000 -1328.113630 -43.934702
-416.000000 -1328.599627 -41.994649
-416.000000 -1329.085623 -40.054595
-416.000000 -1329.571619 -38.114542
-416.000000 -1330.057615 -36.174488
-416.000000 -1330.543612 -34.234435
-416.000000 -1331.029608 -32.294381
-416.000000 -1331.515604 -30.354328
-416.000000 -1332.001600 -28.414274
-416.000000 -1332.487597 -26.474221
-416.000000 -1332.973593 -24.534167
-416.000000 -1333.459589 -22.594114
-416.000000 -1333.945586 -20.654060
-416.000000 -1334.431582 -18.714007
-416.000000 -1334.917578 -16.773953
-416.000000 -1335.403574 -14.833900
-416.000000 -1335.889571 -12.893846
-416.000000 -1336.375567 -10.953793
-416.000000 -1336.861563 -9.013739
-416.000000 -1337.347559 -7.073686
-416.000000 -1337.833556 -5.133632
-416.000000 -1338.319552 -3.193579
-416.000000 -1338.805548 -1.253525
-416.000000 -1339.291544 0.686528
-416.000000 -1339.777541 2.626582
-416.000000 -1340.263537 4.566635
-416.000000 -1340.749533 6.506689
-416.000000 -1341.235530 8.446743
-416.000000 -1341.721526 10.386796
-416.000000 -1342.207522 12.326850
-416.000000 -1342.693518 14.266903
-416.000000 -1343.179515 16.206957
-416.000000 -1343.665511 18.147010
-416.000000 -1344.151507 20.087064
-416.000000 -1344.637503 22.027117
-416.000000 -1345.123500 23.967171
-416.000000 -1345.609496 25.907224
-416.000000 -1346.095492 27.847278
-416.000000 -1346.581488 29.787331
-416.000000 -1347.067485 31.727385
-416.000000 -1347.553481 33.667438
-416.000000 -1348.039477 35.607492
-416.000000 -1348.525474 37.547545
-416.000000 -1349.011470 39.487599
-416.000000 -1349.497466 41.427652
-416.000000 -1349.983462 43.367706
-416.000000 -1350.469459 45.307759
-416.000000 -1350.955455 47.247813
-416.000000 -1351.441451 49.187866
-416.000000 -1351.927447 51.127920
-416.000000 -1352.413444 53.067973
-416.000000 -1352.899440 55.008027
-416.000000 -1353.385436 56.948080
-416.000000 -1353.871432 58.888134
-416.000000 -1354.357429 60.828187
-416.000000 -1354.843425 62.768241
-416.000000 -1355.329421 64.708294
-416.000000 -1355.815418 66.648348
-416.000000 -1356.301414 68.588401
-416.000000 -1356.787410 70.528455
-416.000000 -1357.273406 72.468508
-416.000000 -1357.759403 74.408562
-416.000000 -1358.245399 76.348615
-416.000000 -1358.731395 78.288669
-416.000000 -1359.217391 80.228722
-416.000000 -1359.703388 82.168776
-416.000000 -1360.189384 84.108829
-416.000000 -1360.675380 86.048883
-416.000000 -1361.161376 87.988937
-416.000000 -1361.647373 89.928990
-416.000000 -1362.133369 91.869044
-416.000000 -1362.619365 93.809097
-416.000000 -1363.105361 95.749151
-416.000000 -1363.591358 97.689204
-416.000000 -1364.077354 99.629258
-416.000000 -1364.563350 101.569311
-416.000000 -1365.049347 103.509365
-416.000000 -1365.535343 105.449418
-416.000000 -1366.021339 107.389472
-416.000000 -1366.507335 109.329525
-416.000000 -1366.993332 111.269579
-416.000000 -1367.479328 113.209632
-416.000000 -1367.965324 115.149686
-416.000000 -1368.451320 117.089739
-416.000000 -1368.937317 119.029793
-416.000000 -1369.423313 120.969846
-416.000000 -1369.909309 122.909900
-416.000000 -1370.395305 124.849953
-416.000000 -1370.881302 126.790007
-416.000000 -1371.367298 128.730060
-416.000000 -1371.853294 130.670114
-416.000000 -1372.339291 132.610167
-416.000000 -1372.825287 134.550221
-416.000000 -1373.311283 136.490274
-416.000000 -1373.797279 138.430328
-416.000000 -1374.283276 140.370381
-416.000000 -1374.769272 142.310435
-416.000000 -1375.255268 144.250488
-416.000000 -1375.741264 146.190542
-416.000000 -1376.227261 148.130595
-416.000000 -1376.713257 150.070649
-416.000000 -1377.199253 152.010702
-416.000000 -1377.685249 153.950756
-416.000000 -1378.171246 155.890809
-416.000000 -1378.657242 157.830863
-416.000000 -1379.143238 159.770916
-416.000000 -1379.629235 161.710970
-416.000000 -1380.115231 163.651023
-416.000000 -1380.601227 165.591077
-416.000000 -1381.087223 167.531130
-416.000000 -1381.573220 169.471184
-416.000000 -1382.059216 171.411238
-416.000000 -1382.545212 173.351291
-416.000000 -1383.031208 175.291345
-416.000000 -1383.517205 177.231398
-416.000000 -1384.003201 179.171452
-416.000000 -1384.489197 181.111505
-416.000000 -1384.975193 183.051559
-416.000000 -1385.461190 184.991612
-416.000000 -1385.947186 186.931666
-416.000000 -1386.433182 188.871719
-416.000000 -1386.919179 190.811773
-416.000000 -1387.405175 192.751826
-416.000000 -1387.891171 194.691880
-416.000000 -1388.377167 196.631933
-416.000000 -1388.863164 198.571987
-416.000000 -1389.349160 200.512040
-416.000000 -1389.835156 202.452094
-416.000000 -1390.321152 204.392147
-416.000000 -1390.807149 206.332201
-416.000000 -1391.293145 208.272254
-416.000000 -1391.779141 210.212308
-416.000000 -1392.265137 212.152361
-416.000000 -1392.751134 214.092415
-416.000000 -1393.237130 216.032468
-416.000000 -1393.723126 217.972522
-416.000000 -1394.209123 219.912575
-416.000000 -1394.695119 221.852629
-416.000000 -1395.181115 223.792682
-416.000000 -1395.667111 225.732736
-416.000000 -1396.153108 227.672789
-416.000000 -1396.639104 229.612843
-416.000000 -1397.125100 231.552896
-416.000000 -1397.611096 233.492950
-416.000000 -1398.097093 235.433003
-416.000000 -1398.583089 237.373057
-416.000000 -1399.069085 239.313110
-416.000000 -1399.555081 241.253164
-416.000000 -1400.041078 243.193217
-416.000000 -1400.527074 245.133271
-416.000000 -1401.013070 247.073324
-416.000000 -1401.499067 249.013378
-416.000000 -1401.985063 250.953432
-416.000000 -1402.471059 252.893485
-416.000000 -1402.957055 254.833539
-416.000000 -1403.443052 256.773592
-416.000000 -1403.929048 258.713646
-416.000000 -1404.415044 260.653699
-416.000000 -1404.901040 262.593753
-416.000000 -1405.387037 264.533806
-416.000000 -1405.873033 266.473860
-416.000000 -1406.359029 268.413913
-416.000000 -1406.845025 270.353967
-416.000000 -1407.331022 272.294020
-416.000000 -1407.817018 274.234074
-416.000000 -1408.303014 276.174127
-416.000000 -1408.789011 278.114181
-416.000000 -1409.275007 280.054234
-416.000000 -1409.761003 281.994288
-416.000000 -1410.246999 283.934341
-416.000000 -1410.732996 285.874395
-416.000000 -1411.218992 287.814448
-416.000000 -1411.704988 289.754502
-416.000000 -1412.190984 291.694555
-416.000000 -1412.676981 293.634609
-416.000000 -1413.162977 295.574662
-416.000000 -1413.648973 297.514716
-416.000000 -1414.134969 299.454769
-416.000000 -1414.620966 301.394823
-416.000000 -1415.106962 303.334876
-416.000000 -1415.592958 305.274930
-416.000000 -1416.078954 307.214983
-416.000000 -1416.564951 309.155037
-416.000000 -1417.050947 311.095090
-416.000000 -1417.536943 313.035144
-416.000000 -1418.022940 314.975197
-416.000000 -1418.508936 316.915251
-416.000000 -1418.994932 318.855304
-416.000000 -1419.480928 320.795358
-416.000000 -768.000000 -268.000000
-416.000000 -769.996105 -267.875243
-416.000000 -771.992210 -267.750487
-416.000000 -773.988315 -267.625730
-416.000000 -775.984421 -267.500974
-416.000000 -777.980526 -267.376217
-416.000000 -779.976631 -267.251461
-416.000000 -781.972736 -267.126704
-416.000000 -783.968841 -267.001947
-416.000000 -785.964946 -266.877191
-416.000000 -787.961052 -266.752434
-416.000000 -789.957157 -266.627678
-416.000000 -791.953262 -266.502921
-416.000000 -793.949367 -266.378165
-416.000000 -795.945472 -266.253408
-416.000000 -797.941577 -266.128651
-416.000000 -799.937683 -266.003895
-416.000000 -801.933788 -265.879138
-416.000000 -803.929893 -265.754382
-416.000000 -805.925998 -265.629625
-416.000000 -807.922103 -265.504869
-416.000000 -809.918208 -265.380112
-416.000000 -811.914313 -265.255355
-416.000000 -813.910419 -265.130599
-416.000000 -815.906524 -265.005842
-416.000000 -817.902629 -264.881086
-416.000000 -819.898734 -264.756329
-416.000000 -821.894839 -264.631573
-416.000000 -823.890944 -264.506816
-416.000000 -825.887050 -264.382059
-416.000000 -827.883155 -264.257303
-416.000000 -829.879260 -264.132546
-416.000000 -831.875365 -264.007790
-416.000000 -833.871470 -263.883033
-416.000000 -835.867575 -263.758277
-416.000000 -837.863680 -263.633520
-416.000000 -839.859786 -263.508763
-416.000000 -841.855891 -263.384007
-416.000000 -843.851996 -263.259250
-416.000000 -845.848101 -263.134494
-416.000000 -847.844206 -263.009737
-416.000000 -849.840311 -262.884981
-416.000000 -851.836417 -262.760224
-416.000000 -853.832522 -262.635467
-416.000000 -855.828627 -262.510711
-416.000000 -857.824732 -262.385954
-416.000000 -859.820837 -262.261198
-416.000000 -861.816942 -262.136441
-416.000000 -863.813048 -262.011685
-416.000000 -865.809153 -261.886928
-416.000000 -867.805258 -261.762171
-416.000000 -869.801363 -261.637415
-416.000000 -871.797468 -261.512658
-416.000000 -873.793573 -261.387902
-416.000000 -875.789678 -261.263145
-416.000000 -877.785784 -261.138389
-416.000000 -879.781889 -261.013632
-416.000000 -881.777994 -260.888875
-416.000000 -883.774099 -260.764119
-416.000000 -885.770204 -260.639362
-416.000000 -887.766309 -260.514606
-416.000000 -889.762415 -260.389849
-416.000000 -891.758520 -260.265093
-416.000000 -893.754625 -260.140336
-416.000000 -895.750730 -260.015579
-416.000000 -897.746835 -259.890823
-416.000000 -899.742940 -259.766066
-416.000000 -901.739046 -259.641310
-416.000000 -903.735151 -259.516553
-416.000000 -905.731256 -259.391797
-416.000000 -907.727361 -259.267040
-416.000000 -909.723466 -259.142283
-416.000000 -911.719571 -259.017527
-416.000000 -913.715676 -258.892770
-416.000000 -915.711782 -258.768014
-416.000000 -917.707887 -258.643257
-416.000000 -919.703992 -258.518501
-416.000000 -921.700097 -258.393744
-416.000000 -923.696202 -258.268987
-416.000000 -925.692307 -258.144231
-416.000000 -927.688413 -258.019474
-416.000000 -929.684518 -257.894718
-416.000000 -931.680623 -257.769961
-416.000000 -933.676728 -257.645204
-416.000000 -935.672833 -257.520448
-416.000000 -937.668938 -257.395691
-416.000000 -939.665043 -257.270935
-416.000000 -941.661149 -257.146178
-416.000000 -943.657254 -257.021422
-416.000000 -945.653359 -256.896665
-416.000000 -947.649464 -256.771908
-416.000000 -949.645569 -256.647152
-416.000000 -951.641674 -256.522395
-416.000000 -953.637780 -256.397639
-416.000000 -955.633885 -256.272882
-416.000000 -957.629990 -256.148126
-416.000000 -959.626095 -256.023369
-416.000000 -961.622200 -255.898612
-416.000000 -963.618305 -255.773856
-416.000000 -965.614411 -255.649099
-416.000000 -967.610516 -255.524343
-416.000000 -969.606621 -255.399586
-416.000000 -971.602726 -255.274830
-416.000000 -973.598831 -255.150073
-416.000000 -975.594936 -255.025316
-416.000000 -977.591041 -254.900560
-416.000000 -979.587147 -254.775803
-416.000000 -981.583252 -254.651047
-416.000000 -983.579357 -254.526290
-416.000000 -985.575462 -254.401534
-416.000000 -987.571567 -254.276777
-416.000000 -989.567672 -254.152020
-416.000000 -991.563778 -254.027264
-416.000000 -993.559883 -253.902507
-416.000000 -995.555988 -253.777751
-416.000000 -997.552093 -253.652994
-416.000000 -999.548198 -253.528238
-416.000000 -1001.544303 -253.403481
-416.000000 -1003.540409 -253.278724
-416.000000 -1005.536514 -253.153968
-416.000000 -1007.532619 -253.029211
-416.000000 -1009.528724 -252.904455
-416.000000 -1011.524829 -252.779698
-416.000000 -1013.520934 -252.654942
-416.000000 -1015.517039 -252.530185
-416.000000 -1017.513145 -252.405428
-416.000000 -1019.509250 -252.280672
-416.000000 -1021.505355 -252.155915
-416.000000 -1023.501460 -252.031159
-416.000000 -1025.497565 -251.906402
-416.000000 -1027.493670 -251.781646
-416.000000 -1029.489776 -251.656889
-416.000000 -1031.485881 -251.532132
-416.000000 -1033.481986 -251.407376
-416.000000 -1035.478091 -251.282619
-416.000000 -1037.474196 -251.157863
-416.000000 -1039.470301 -251.033106
-416.000000 -1041.466407 -250.908350
-416.000000 -1043.462512 -250.783593
-416.000000 -1045.458617 -250.658836
-416.000000 -1047.454722 -250.534080
-416.000000 -1049.450827 -250.409323
-416.000000 -1051.446932 -250.284567
-416.000000 -1053.443037 -250.159810
-416.000000 -1055.439143 -250.035054
-416.000000 -1057.435248 -249.910297
-416.000000 -1059.431353 -249.785540
-416.000000 -1061.427458 -249.660784
-416.000000 -1063.423563 -249.536027
-416.000000 -1065.419668 -249.411271
-416.000000 -1067.415774 -249.286514
-416.000000 -1069.411879 -249.161758
-416.000000 -1071.407984 -249.037001
-416.000000 -1073.404089 -248.912244
-416.000000 -1075.400194 -248.787488
-416.000000 -1077.396299 -248.662731
-416.000000 -1079.392404 -248.537975
-416.000000 -1081.388510 -248.413218
-416.000000 -1083.384615 -248.288462
-416.000000 -1085.380720 -248.163705
-416.000000 -1087.376825 -248.038948
-416.000000 -1089.372930 -247.914192
-416.000000 -1091.369035 -247.789435
-416.000000 -1093.365141 -247.664679
-416.000000 -1095.361246 -247.539922
-416.000000 -1097.357351 -247.415166
-416.000000 -1099.353456 -247.290409
-416.000000 -1101.349561 -247.165652
-416.000000 -1103.345666 -247.040896
-416.000000 -1105.341772 -246.916139
-416.000000 -1107.337877 -246.791383
-416.000000 -1109.333982 -246.666626
-416.000000 -1111.330087 -246.541870
-416.000000 -1113.326192 -246.417113
-416.000000 -1115.322297 -246.292356
-416.000000 -1117.318402 -246.167600
-416.000000 -1119.314508 -246.042843
-416.000000 -1121.310613 -245.918087
-416.000000 -1123.306718 -245.793330
-416.000000 -1125.302823 -245.668574
-416.000000 -1127.298928 -245.543817
-416.000000 -1129.295033 -245.419060
-416.000000 -1131.291139 -245.294304
-416.000000 -1133.287244 -245.169547
-416.000000 -1135.283349 -245.044791
-416.000000 -1137.279454 -244.920034
-416.000000 -1139.275559 -244.795278
-416.000000 -1141.271664 -244.670521
-416.000000 -1143.267770 -244.545764
-416.000000 -1145.263875 -244.421008
-416.000000 -1147.259980 -244.296251
-416.000000 -1149.256085 -244.171495
-416.000000 -1151.252190 -244.046738
-416.000000 -1153.248295 -243.921982
-416.000000 -1155.244400 -243.797225
-416.000000 -1157.240506 -243.672468
-416.000000 -1159.236611 -243.547712
-416.000000 -1161.232716 -243.422955
-416.000000 -1163.228821 -243.298199
-416.000000 -1165.224926 -243.173442
-416.000000 -1167.221031 -243.048686
-416.000000 -1169.217137 -242.923929
-416.000000 -1171.213242 -242.799172
-416.000000 -1173.209347 -242.674416
-416.000000 -1175.205452 -242.549659
-416.000000 -1177.201557 -242.424903
-416.000000 -1179.197662 -242.300146
-416.000000 -1181.193767 -242.175390
-416.000000 -1183.189873 -242.050633
-416.000000 -1185.185978 -241.925876
-416.000000 -1187.182083 -241.801120
-416.000000 -1189.178188 -241.676363
-416.000000 -1191.174293 -241.551607
-416.000000 -1193.170398 -241.426850
-416.000000 -1195.166504 -241.302094
-416.000000 -1197.162609 -241.177337
-416.000000 -1199.158714 -241.052580
-416.000000 -1201.154819 -240.927824
-416.000000 -1203.150924 -240.803067
-416.000000 -1205.147029 -240.678311
-416.000000 -1207.143135 -240.553554
-416.000000 -1209.139240 -240.428798
-416.000000 -1211.135345 -240.304041
-416.000000 -1213.131450 -240.179284
-416.000000 -1215.127555 -240.054528
-416.000000 -1217.123660 -239.929771
-416.000000 -1219.119765 -239.805015
-416.000000 -1221.115871 -239.680258
-416.000000 -1223.111976 -239.555502
-416.000000 -1225.108081 -239.430745
-416.000000 -1227.104186 -239.305988
-416.000000 -1229.100291 -239.181232
-416.000000 -1231.096396 -239.056475
-416.000000 -1233.092502 -238.931719
-416.000000 -1235.088607 -238.806962
-416.000000 -1237.084712 -238.682206
-416.000000 -1239.080817 -238.557449
-416.000000 -1241.076922 -238.432692
-416.000000 -1243.073027 -238.307936
-416.000000 -1245.069133 -238.183179
-416.000000 -1247.065238 -238.058423
-416.000000 -1249.061343 -237.933666
-416.000000 -1251.057448 -237.808910
-416.000000 -1253.053553 -237.684153
-416.000000 -1255.049658 -237.559396
-416.000000 -1257.045763 -237.434640
-416.000000 -1259.041869 -237.309883
-416.000000 -1261.037974 -237.185127
-416.000000 -1263.034079 -237.060370
-416.000000 -1265.030184 -236.935613
-416.000000 -1267.026289 -236.810857
-416.000000 -1269.022394 -236.686100
-416.000000 -1271.018500 -236.561344
-416.000000 -1273.014605 -236.436587
-416.000000 -1275.010710 -236.311831
-416.000000 -1277.006815 -236.187074
-448.000000 -480.000000 -268.000000
-447.779137 -481.987767 -268.000000
-447.558274 -483.975535 -268.000000
-447.337411 -485.963302 -268.000000
-447.116548 -487.951070 -268.000000
-446.895685 -489.938837 -268.000000
-446.674822 -491.926605 -268.000000
-446.453959 -493.914372 -268.000000
-446.233096 -495.902140 -268.000000
-446.012233 -497.889907 -268.000000
-445.791369 -499.877675 -268.000000
-445.570506 -501.865442 -268.000000
-445.349643 -503.853210 -268.000000
-445.128780 -505.840977 -268.000000
-444.907917 -507.828745 -268.000000
-444.687054 -509.816512 -268.000000
-444.466191 -511.804280 -268.000000
-444.245328 -513.792047 -268.000000
-444.024465 -515.779814 -268.000000
-443.803602 -517.767582 -268.000000
-443.582739 -519.755349 -268.000000
-443.361876 -521.743117 -268.000000
-443.141013 -523.730884 -268.000000
-442.920150 -525.718652 -268.000000
-442.699287 -527.706419 -268.000000
-442.478424 -529.694187 -268.000000
-442.257561 -531.681954 -268.000000
-442.036698 -533.669722 -268.000000
-441.815835 -535.657489 -268.000000
-441.594971 -537.645257 -268.000000
-441.374108 -539.633024 -268.000000
-441.153245 -541.620792 -268.000000
-440.932382 -543.608559 -268.000000
-440.711519 -545.596326 -268.000000
-440.490656 -547.584094 -268.000000
-440.269793 -549.571861 -268.000000
-440.048930 -551.559629 -268.000000
-439.828067 -553.547396 -268.000000
-439.607204 -555.535164 -268.000000
-439.386341 -557.522931 -268.000000
-439.165478 -559.510699 -268.000000
-438.944615 -561.498466 -268.000000
-438.723752 -563.486234 -268.000000
-438.502889 -565.474001 -268.000000
-438.282026 -567.461769 -268.000000
-438.061163 -569.449536 -268.000000
-437.840300 -571.437304 -268.000000
-437.619437 -573.425071 -268.000000
-437.398573 -575.412839 -268.000000
-437.177710 -577.400606 -268.000000
-436.956847 -579.388373 -268.000000
-436.735984 -581.376141 -268.000000
-436.515121 -583.363908 -268.000000
-436.294258 -585.351676 -268.000000
-436.073395 -587.339443 -268.000000
-435.852532 -589.327211 -268.000000
-435.631669 -591.314978 -268.000000
-435.410806 -593.302746 -268.000000
-435.189943 -595.290513 -268.000000
-434.969080 -597.278281 -268.000000
-434.748217 -599.266048 -268.000000
-434.527354 -601.253816 -268.000000
-434.306491 -603.241583 -268.000000
-434.085628 -605.229351 -268.000000
-433.864765 -607.217118 -268.000000
-433.643902 -609.204886 -268.000000
-433.423039 -611.192653 -268.000000
-433.202176 -613.180420 -268.000000
-432.981312 -615.168188 -268.000000
-432.760449 -617.155955 -268.000000
-432.539586 -619.143723 -268.000000
-432.318723 -621.131490 -268.000000
-432.097860 -623.119258 -268.000000
-431.876997 -625.107025 -268.000000
-431.656134 -627.094793 -268.000000
-431.435271 -629.082560 -268.000000
-431.214408 -631.070328 -268.000000
-430.993545 -633.058095 -268.000000
-430.772682 -635.045863 -268.000000
-430.551819 -637.033630 -268.000000
-430.330956 -639.021398 -268.000000
-430.110093 -641.009165 -268.000000
-429.889230 -642.996932 -268.000000
-429.668367 -644.984700 -268.000000
-429.447504 -646.972467 -268.000000
-429.226641 -648.960235 -268.000000
-429.005778 -650.948002 -268.000000
-428.784914 -652.935770 -268.000000
-428.564051 -654.923537 -268.000000
-428.343188 -656.911305 -268.000000
-428.122325 -658.899072 -268.000000
-427.901462 -660.886840 -268.000000
-427.680599 -662.874607 -268.000000
-427.459736 -664.862375 -268.000000
-427.238873 -666.850142 -268.000000
-427.018010 -668.837910 -268.000000
-426.797147 -670.825677 -268.000000
-426.576284 -672.813445 -268.000000
-426.355421 -674.801212 -268.000000
-426.134558 -676.788979 -268.000000
-425.913695 -678.776747 -268.000000
-425.692832 -680.764514 -268.000000
-425.471969 -682.752282 -268.000000
-425.251106 -684.740049 -268.000000
-425.030243 -686.727817 -268.000000
-424.809380 -688.715584 -268.000000
-424.588516 -690.703352 -268.000000
-424.367653 -692.691119 -268.000000
-424.146790 -694.678887 -268.000000
-423.925927 -696.666654 -268.000000
-423.705064 -698.654422 -268.000000
-423.484201 -700.642189 -268.000000
-423.263338 -702.629957 -268.000000
-423.042475 -704.617724 -268.000000
-422.821612 -706.605492 -268.000000
-422.600749 -708.593259 -268.000000
-422.379886 -710.581026 -268.000000
-422.159023 -712.568794 -268.000000
-421.938160 -714.556561 -268.000000
-421.717297 -716.544329 -268.000000
-421.496434 -718.532096 -268.000000
-421.275571 -720.519864 -268.000000
-421.054708 -722.507631 -268.000000
-420.833845 -724.495399 -268.000000
-420.612982 -726.483166 -268.000000
-420.392118 -728.470934 -268.000000
-420.171255 -730.458701 -268.000000
-419.950392 -732.446469 -268.000000
-419.729529 -734.434236 -268.000000
-419.508666 -736.422004 -268.000000
-419.287803 -738.409771 -268.000000
-419.066940 -740.397538 -268.000000
-418.846077 -742.385306 -268.000000
-418.625214 -744.373073 -268.000000
-418.404351 -746.360841 -268.000000
-418.183488 -748.348608 -268.000000
-417.962625 -750.336376 -268.000000
-417.741762 -752.324143 -268.000000
-417.520899 -754.311911 -268.000000
-417.300036 -756.299678 -268.000000
-417.079173 -758.287446 -268.000000
-416.858310 -760.275213 -268.000000
-416.637447 -762.262981 -268.000000
-416.416584 -764.250748 -268.000000
-1120.000000 -512.000000 -268.000000
-1118.002264 -511.904870 -268.000000
-1116.004527 -511.809739 -268.000000
-1114.006791 -511.714609 -268.000000
-1112.009055 -511.619479 -268.000000
-1110.011319 -511.524349 -268.000000
-1108.013582 -511.429218 -268.000000
-1106.015846 -511.334088 -268.000000
-1104.018110 -511.238958 -268.000000
-1102.020374 -511.143827 -268.000000
-1100.022637 -511.048697 -268.000000
-1098.024901 -510.953567 -268.000000
-1096.027165 -510.858436 -268.000000
-1094.029428 -510.763306 -268.000000
-1092.031692 -510.668176 -268.000000
-1090.033956 -510.573046 -268.000000
-1088.036220 -510.477915 -268.000000
-1086.038483 -510.382785 -268.000000
-1084.040747 -510.287655 -268.000000
-1082.043011 -510.192524 -268.000000
-1080.045274 -510.097394 -268.000000
-1078.047538 -510.002264 -268.000000
-1076.049802 -509.907133 -268.000000
-1074.052066 -509.812003 -268.000000
-1072.054329 -509.716873 -268.000000
-1070.056593 -509.621743 -268.000000
-1068.058857 -509.526612 -268.000000
-1066.061121 -509.431482 -268.000000
-1064.063384 -509.336352 -268.000000
-1062.065648 -509.241221 -268.000000
-1060.067912 -509.146091 -268.000000
-1058.070175 -509.050961 -268.000000
-1056.072439 -508.955830 -268.000000
-1054.074703 -508.860700 -268.000000
-1052.076967 -508.765570 -268.000000
-1050.079230 -508.670440 -268.000000
-1048.081494 -508.575309 -268.000000
-1046.083758 -508.480179 -268.000000
-1044.086022 -508.385049 -268.000000
-1042.088285 -508.289918 -268.000000
-1040.090549 -508.194788 -268.000000
-1038.092813 -508.099658 -268.000000
-1036.095076 -508.004527 -268.000000
-1034.097340 -507.909397 -268.000000
-1032.099604 -507.814267 -268.000000
-1030.101868 -507.719137 -268.000000
-1028.104131 -507.624006 -268.000000
-1026.106395 -507.528876 -268.000000
-1024.108659 -507.433746 -268.000000
-1022.110923 -507.338615 -268.000000
-1020.113186 -507.243485 -268.000000
-1018.115450 -507.148355 -268.000000
-1016.117714 -507.053224 -268.000000
-1014.119977 -506.958094 -268.000000
-1012.122241 -506.862964 -268.000000
-1010.124505 -506.767834 -268.000000
-1008.126769 -506.672703 -268.000000
-1006.129032 -506.577573 -268.000000
-1004.131296 -506.482443 -268.000000
-1002.133560 -506.387312 -268.000000
-1000.135823 -506.292182 -268.000000
-998.138087 -506.197052 -268.000000
-996.140351 -506.101921 -268.000000
-994.142615 -506.006791 -268.000000
-992.144878 -505.911661 -268.000000
-990.147142 -505.816531 -268.000000
-988.149406 -505.721400 -268.000000
-986.151670 -505.626270 -268.000000
-984.153933 -505.531140 -268.000000
-982.156197 -505.436009 -268.000000
-980.158461 -505.340879 -268.000000
-978.160724 -505.245749 -268.000000
-976.162988 -505.150618 -268.000000
-974.165252 -505.055488 -268.000000
-972.167516 -504.960358 -268.000000
-970.169779 -504.865228 -268.000000
-968.172043 -504.770097 -268.000000
-966.174307 -504.674967 -268.000000
-964.176571 -504.579837 -268.000000
-962.178834 -504.484706 -268.000000
-960.181098 -504.389576 -268.000000
-958.183362 -504.294446 -268.000000
-956.185625 -504.199315 -268.000000
-954.187889 -504.104185 -268.000000
-952.190153 -504.009055 -268.000000
-950.192417 -503.913925 -268.000000
-948.194680 -503.818794 -268.000000
-946.196944 -503.723664 -268.000000
-944.199208 -503.628534 -268.000000
-942.201471 -503.533403 -268.000000
-940.203735 -503.438273 -268.000000
-938.205999 -503.343143 -268.000000
-936.208263 -503.248013 -268.000000
-934.210526 -503.152882 -268.000000
-932.212790 -503.057752 -268.000000
-930.215054 -502.962622 -268.000000
-928.217318 -502.867491 -268.000000
-926.219581 -502.772361 -268.000000
-924.221845 -502.677231 -268.000000
-922.224109 -502.582100 -268.000000
-920.226372 -502.486970 -268.000000
-918.228636 -502.391840 -268.000000
-916.230900 -502.296710 -268.000000
-914.233164 -502.201579 -268.000000
-912.235427 -502.106449 -268.000000
-910.237691 -502.011319 -268.000000
-908.239955 -501.916188 -268.000000
-906.242219 -501.821058 -268.000000
-904.244482 -501.725928 -268.000000
-902.246746 -501.630797 -268.000000
-900.249010 -501.535667 -268.000000
-898.251273 -501.440537 -268.000000
-896.253537 -501.345407 -268.000000
-894.255801 -501.250276 -268.000000
-892.258065 -501.155146 -268.000000
-890.260328 -501.060016 -268.000000
-888.262592 -500.964885 -268.000000
-886.264856 -500.869755 -268.000000
-884.267119 -500.774625 -268.000000
-882.269383 -500.679494 -268.000000
-880.271647 -500.584364 -268.000000
-878.273911 -500.489234 -268.000000
-876.276174 -500.394104 -268.000000
-874.278438 -500.298973 -268.000000
-872.280702 -500.203843 -268.000000
-870.282966 -500.108713 -268.000000
-868.285229 -500.013582 -268.000000
-866.287493 -499.918452 -268.000000
-864.289757 -499.823322 -268.000000
-862.292020 -499.728191 -268.000000
-860.294284 -499.633061 -268.000000
-858.296548 -499.537931 -268.000000
-856.298812 -499.442801 -268.000000
-854.301075 -499.347670 -268.000000
-852.303339 -499.252540 -268.000000
-850.305603 -499.157410 -268.000000
-848.307867 -499.062279 -268.000000
-846.310130 -498.967149 -268.000000
-844.312394 -498.872019 -268.000000
-842.314658 -498.776888 -268.000000
-840.316921 -498.681758 -268.000000
-838.319185 -498.586628 -268.000000
-836.321449 -498.491498 -268.000000
-834.323713 -498.396367 -268.000000
-832.325976 -498.301237 -268.000000
-830.328240 -498.206107 -268.000000
-828.330504 -498.110976 -268.000000
-826.332768 -498.015846 -268.000000
-824.335031 -497.920716 -268.000000
-822.337295 -497.825585 -268.000000
-820.339559 -497.730455 -268.000000
-818.341822 -497.635325 -268.000000
-816.344086 -497.540195 -268.000000
-814.346350 -497.445064 -268.000000
-812.348614 -497.349934 -268.000000
-810.350877 -497.254804 -268.000000
-808.353141 -497.159673 -268.000000
-806.355405 -497.064543 -268.000000
-804.357668 -496.969413 -268.000000
-802.359932 -496.874282 -268.000000
-800.362196 -496.779152 -268.000000
-798.364460 -496.684022 -268.000000
-796.366723 -496.588892 -268.000000
-794.368987 -496.493761 -268.000000
-792.371251 -496.398631 -268.000000
-790.373515 -496.303501 -268.000000
-788.375778 -496.208370 -268.000000
-786.378042 -496.113240 -268.000000
-784.380306 -496.018110 -268.000000
-782.382569 -495.922979 -268.000000
-780.384833 -495.827849 -268.000000
-778.387097 -495.732719 -268.000000
-776.389361 -495.637589 -268.000000
-774.391624 -495.542458 -268.000000
-772.393888 -495.447328 -268.000000
-770.396152 -495.352198 -268.000000
-768.398416 -495.257067 -268.000000
-766.400679 -495.161937 -268.000000
-764.402943 -495.066807 -268.000000
-762.405207 -494.971677 -268.000000
-760.407470 -494.876546 -268.000000
-758.409734 -494.781416 -268.000000
-756.411998 -494.686286 -268.000000
-754.414262 -494.591155 -268.000000
-752.416525 -494.496025 -268.000000
-750.418789 -494.400895 -268.000000
-748.421053 -494.305764 -268.000000
-746.423316 -494.210634 -268.000000
-744.425580 -494.115504 -268.000000
-742.427844 -494.020374 -268.000000
-740.430108 -493.925243 -268.000000
-738.432371 -493.830113 -268.000000
-736.434635 -493.734983 -268.000000
-734.436899 -493.639852 -268.000000
-732.439163 -493.544722 -268.000000
-730.441426 -493.449592 -268.000000
-728.443690 -493.354461 -268.000000
-726.445954 -493.259331 -268.000000
-724.448217 -493.164201 -268.000000
-722.450481 -493.069071 -268.000000
-720.452745 -492.973940 -268.000000
-718.455009 -492.878810 -268.000000
-716.457272 -492.783680 -268.000000
-714.459536 -492.688549 -268.000000
-712.461800 -492.593419 -268.000000
-710.464064 -492.498289 -268.000000
-708.466327 -492.403158 -268.000000
-706.468591 -492.308028 -268.000000
-704.470855 -492.212898 -268.000000
-702.473118 -492.117768 -268.000000
-700.475382 -492.022637 -268.000000
-698.477646 -491.927507 -268.000000
-696.479910 -491.832377 -268.000000
-694.482173 -491.737246 -268.000000
-692.484437 -491.642116 -268.000000
-690.486701 -491.546986 -268.000000
-688.488965 -491.451855 -268.000000
-686.491228 -491.356725 -268.000000
-684.493492 -491.261595 -268.000000
-682.495756 -491.166465 -268.000000
-680.498019 -491.071334 -268.000000
-678.500283 -490.976204 -268.000000
-676.502547 -490.881074 -268.000000
-674.504811 -490.785943 -268.000000
-672.507074 -490.690813 -268.000000
-670.509338 -490.595683 -268.000000
-668.511602 -490.500552 -268.000000
-666.513865 -490.405422 -268.000000
-664.516129 -490.310292 -268.000000
-662.518393 -490.215162 -268.000000
-660.520657 -490.120031 -268.000000
-658.522920 -490.024901 -268.000000
-656.525184 -489.929771 -268.000000
-654.527448 -489.834640 -268.000000
-652.529712 -489.739510 -268.000000
-650.531975 -489.644380 -268.000000
-648.534239 -489.549249 -268.000000
-646.536503 -489.454119 -268.000000
-644.538766 -489.358989 -268.000000
-642.541030 -489.263859 -268.000000
-640.543294 -489.168728 -268.000000
-638.545558 -489.073598 -268.000000
-636.547821 -488.978468 -268.000000
-634.550085 -488.883337 -268.000000
-632.552349 -488.788207 -268.000000
-630.554613 -488.693077 -268.000000
-628.556876 -488.597946 -268.000000
-626.559140 -488.502816 -268.000000
-624.561404 -488.407686 -268.000000
-622.563667 -488.312556 -268.000000
-620.565931 -488.217425 -268.000000
-618.568195 -488.122295 -268.000000
-616.570459 -488.027165 -268.000000
-614.572722 -487.932034 -268.000000
-612.574986 -487.836904 -268.000000
-610.577250 -487.741774 -268.000000
-608.579513 -487.646643 -268.000000
-606.581777 -487.551513 -268.000000
-604.584041 -487.456383 -268.000000
-602.586305 -487.361253 -268.000000
-600.588568 -487.266122 -268.000000
-598.590832 -487.170992 -268.000000
-596.593096 -487.075862 -268.000000
-594.595360 -486.980731 -268.000000
-592.597623 -486.885601 -268.000000
-590.599887 -486.790471 -268.000000
-588.602151 -486.695341 -268.000000
-586.604414 -486.600210 -268.000000
-584.606678 -486.505080 -268.000000
-582.608942 -486.409950 -268.000000
-580.611206 -486.314819 -268.000000
-578.613469 -486.219689 -268.000000
-576.615733 -486.124559 -268.000000
-574.617997 -486.029428 -268.000000
-572.620261 -485.934298 -268.000000
-570.622524 -485.839168 -268.000000
-568.624788 -485.744038 -268.000000
-566.627052 -485.648907 -268.000000
-564.629315 -485.553777 -268.000000
-562.631579 -485.458647 -268.000000
-560.633843 -485.363516 -268.000000
-558.636107 -485.268386 -268.000000
-556.638370 -485.173256 -268.000000
-554.640634 -485.078125 -268.000000
-552.642898 -484.982995 -268.000000
-550.645161 -484.887865 -268.000000
-548.647425 -484.792735 -268.000000
-546.649689 -484.697604 -268.000000
-544.651953 -484.602474 -268.000000
-542.654216 -484.507344 -268.000000
-540.656480 -484.412213 -268.000000
-538.658744 -484.317083 -268.000000
-536.661008 -484.221953 -268.000000
-534.663271 -484.126822 -268.000000
-532.665535 -484.031692 -268.000000
-530.667799 -483.936562 -268.000000
-528.670062 -483.841432 -268.000000
-526.672326 -483.746301 -268.000000
-524.674590 -483.651171 -268.000000
-522.676854 -483.556041 -268.000000
-520.679117 -483.460910 -268.000000
-518.681381 -483.365780 -268.000000
-516.683645 -483.270650 -268.000000
-514.685909 -483.175519 -268.000000
-512.688172 -483.080389 -268.000000
-510.690436 -482.985259 -268.000000
-508.692700 -482.890129 -268.000000
-506.694963 -482.794998 -268.000000
-504.697227 -482.699868 -268.000000
-502.699491 -482.604738 -268.000000
-500.701755 -482.509607 -268.000000
-498.704018 -482.414477 -268.000000
-496.706282 -482.319347 -268.000000
-494.708546 -482.224216 -268.000000
-492.710810 -482.129086 -268.000000
-490.713073 -482.033956 -268.000000
-488.715337 -481.938826 -268.000000
-486.717601 -481.843695 -268.000000
-484.719864 -481.748565 -268.000000
-482.722128 -481.653435 -268.000000
-480.724392 -481.558304 -268.000000
-478.726656 -481.463174 -268.000000
-476.728919 -481.368044 -268.000000
-474.731183 -481.272913 -268.000000
-472.733447 -481.177783 -268.000000
-470.735710 -481.082653 -268.000000
-468.737974 -480.987523 -268.000000
-466.740238 -480.892392 -268.000000
-464.742502 -480.797262 -268.000000
-462.744765 -480.702132 -268.000000
-460.747029 -480.607001 -268.000000
-458.749293 -480.511871 -268.000000
-456.751557 -480.416741 -268.000000
-454.753820 -480.321610 -268.000000
-452.756084 -480.226480 -268.000000
-450.758348 -480.131350 -268.000000
-1836.000000 -512.000000 96.000000
-1834.217162 -512.000000 95.093641
-1832.434323 -512.000000 94.187282
-1830.651485 -512.000000 93.280922
-1828.868646 -512.000000 92.374563
-1827.085808 -512.000000 91.468204
-1825.302969 -512.000000 90.561845
-1823.520131 -512.000000 89.655485
-1821.737292 -512.000000 88.749126
-1819.954454 -512.000000 87.842767
-1818.171615 -512.000000 86.936408
-1816.388777 -512.000000 86.030049
-1814.605938 -512.000000 85.123689
-1812.823100 -512.000000 84.217330
-1811.040262 -512.000000 83.310971
-1809.257423 -512.000000 82.404612
-1807.474585 -512.000000 81.498253
-1805.691746 -512.000000 80.591893
-1803.908908 -512.000000 79.685534
-1802.126069 -512.000000 78.779175
-1800.343231 -512.000000 77.872816
-1798.560392 -512.000000 76.966456
-1796.777554 -512.000000 76.060097
-1794.994715 -512.000000 75.153738
-1793.211877 -512.000000 74.247379
-1791.429039 -512.000000 73.341020
-1789.646200 -512.000000 72.434660
-1787.863362 -512.000000 71.528301
-1786.080523 -512.000000 70.621942
-1784.297685 -512.000000 69.715583
-1782.514846 -512.000000 68.809224
-1780.732008 -512.000000 67.902864
-1778.949169 -512.000000 66.996505
-1777.166331 -512.000000 66.090146
-1775.383492 -512.000000 65.183787
-1773.600654 -512.000000 64.277427
-1771.817815 -512.000000 63.371068
-1770.034977 -512.000000 62.464709
-1768.252139 -512.000000 61.558350
-1766.469300 -512.000000 60.651991
-1764.686462 -512.000000 59.745631
-1762.903623 -512.000000 58.839272
-1761.120785 -512.000000 57.932913
-1759.337946 -512.000000 57.026554
-1757.555108 -512.000000 56.120194
-1755.772269 -512.000000 55.213835
-1753.989431 -512.000000 54.307476
-1752.206592 -512.000000 53.401117
-1750.423754 -512.000000 52.494758
-1748.640916 -512.000000 51.588398
-1746.858077 -512.000000 50.682039
-1745.075239 -512.000000 49.775680
-1743.292400 -512.000000 48.869321
-1741.509562 -512.000000 47.962962
-1739.726723 -512.000000 47.056602
-1737.943885 -512.000000 46.150243
-1736.161046 -512.000000 45.243884
-1734.378208 -512.000000 44.337525
-1732.595369 -512.000000 43.431165
-1730.812531 -512.000000 42.524806
-1729.029692 -512.000000 41.618447
-1727.246854 -512.000000 40.712088
-1725.464016 -512.000000 39.805729
-1723.681177 -512.000000 38.899369
-1721.898339 -512.000000 37.993010
-1720.115500 -512.000000 37.086651
-1718.332662 -512.000000 36.180292
-1716.549823 -512.000000 35.273932
-1714.766985 -512.000000 34.367573
-1712.984146 -512.000000 33.461214
-1711.201308 -512.000000 32.554855
-1709.418469 -512.000000 31.648496
-1707.635631 -512.000000 30.742136
-1705.852792 -512.000000 29.835777
-1704.069954 -512.000000 28.929418
-1702.287116 -512.000000 28.023059
-1700.504277 -512.000000 27.116700
-1698.721439 -512.000000 26.210340
-1696.938600 -512.000000 25.303981
-1695.155762 -512.000000 24.397622
-1693.372923 -512.000000 23.491263
-1691.590085 -512.000000 22.584903
-1689.807246 -512.000000 21.678544
-1688.024408 -512.000000 20.772185
-1686.241569 -512.000000 19.865826
-1684.458731 -512.000000 18.959467
-1682.675893 -512.000000 18.053107
-1680.893054 -512.000000 17.146748
-1679.110216 -512.000000 16.240389
-1677.327377 -512.000000 15.334030
-1675.544539 -512.000000 14.427671
-1673.761700 -512.000000 13.521311
-1671.978862 -512.000000 12.614952
-1670.196023 -512.000000 11.708593
-1668.413185 -512.000000 10.802234
-1666.630346 -512.000000 9.895874
-1664.847508 -512.000000 8.989515
-1663.064669 -512.000000 8.083156
-1661.281831 -512.000000 7.176797
-1659.498993 -512.000000 6.270438
-1657.716154 -512.000000 5.364078
-1655.933316 -512.000000 4.457719
-1654.150477 -512.000000 3.551360
-1652.367639 -512.000000 2.645001
-1650.584800 -512.000000 1.738641
-1648.801962 -512.000000 0.832282
-1647.019123 -512.000000 -0.074077
-1645.236285 -512.000000 -0.980436
-1643.453446 -512.000000 -1.886795
-1641.670608 -512.000000 -2.793155
-1639.887770 -512.000000 -3.699514
-1638.104931 -512.000000 -4.605873
-1636.322093 -512.000000 -5.512232
-1634.539254 -512.000000 -6.418591
-1632.756416 -512.000000 -7.324951
-1630.973577 -512.000000 -8.231310
-1629.190739 -512.000000 -9.137669
-1627.407900 -512.000000 -10.044028
-1625.625062 -512.000000 -10.950388
-1623.842223 -512.000000 -11.856747
-1622.059385 -512.000000 -12.763106
-1620.276546 -512.000000 -13.669465
-1618.493708 -512.000000 -14.575824
-1616.710870 -512.000000 -15.482184
-1614.928031 -512.000000 -16.388543
-1613.145193 -512.000000 -17.294902
-1611.362354 -512.000000 -18.201261
-1609.579516 -512.000000 -19.107621
-1607.796677 -512.000000 -20.013980
-1606.013839 -512.000000 -20.920339
-1604.231000 -512.000000 -21.826698
-1602.448162 -512.000000 -22.733057
-1600.665323 -512.000000 -23.639417
-1598.882485 -512.000000 -24.545776
-1597.099647 -512.000000 -25.452135
-1595.316808 -512.000000 -26.358494
-1593.533970 -512.000000 -27.264853
-1591.751131 -512.000000 -28.171213
-1589.968293 -512.000000 -29.077572
-1588.185454 -512.000000 -29.983931
-1586.402616 -512.000000 -30.890290
-1584.619777 -512.000000 -31.796650
-1582.836939 -512.000000 -32.703009
-1581.054100 -512.000000 -33.609368
-1579.271262 -512.000000 -34.515727
-1577.488423 -512.000000 -35.422086
-1575.705585 -512.000000 -36.328446
-1573.922747 -512.000000 -37.234805
-1572.139908 -512.000000 -38.141164
-1570.357070 -512.000000 -39.047523
-1568.574231 -512.000000 -39.953882
-1566.791393 -512.000000 -40.860242
-1565.008554 -512.000000 -41.766601
-1563.225716 -512.000000 -42.672960
-1561.442877 -512.000000 -43.579319
-1559.660039 -512.000000 -44.485679
-1557.877200 -512.000000 -45.392038
-1556.094362 -512.000000 -46.298397
-1554.311523 -512.000000 -47.204756
-1552.528685 -512.000000 -48.111115
-1550.745847 -512.000000 -49.017475
-1548.963008 -512.000000 -49.923834
-1547.180170 -512.000000 -50.830193
-1545.397331 -512.000000 -51.736552
-1543.614493 -512.000000 -52.642912
-1541.831654 -512.000000 -53.549271
-1540.048816 -512.000000 -54.455630
-1538.265977 -512.000000 -55.361989
-1536.483139 -512.000000 -56.268348
-1534.700300 -512.000000 -57.174708
-1532.917462 -512.000000 -58.081067
-1531.134624 -512.000000 -58.987426
-1529.351785 -512.000000 -59.893785
-1527.568947 -512.000000 -60.800144
-1525.786108 -512.000000 -61.706504
-1524.003270 -512.000000 -62.612863
-1522.220431 -512.000000 -63.519222
-1520.437593 -512.000000 -64.425581
-1518.654754 -512.000000 -65.331941
-1516.871916 -512.000000 -66.238300
-1515.089077 -512.000000 -67.144659
-1513.306239 -512.000000 -68.051018
-1511.523400 -512.000000 -68.957377
-1509.740562 -512.000000 -69.863737
-1507.957724 -512.000000 -70.770096
-1506.174885 -512.000000 -71.676455
-1504.392047 -512.000000 -72.582814
-1502.609208 -512.000000 -73.489173
-1500.826370 -512.000000 -74.395533
-1499.043531 -512.000000 -75.301892
-1497.260693 -512.000000 -76.208251
-1495.477854 -512.000000 -77.114610
-1493.695016 -512.000000 -78.020970
-1491.912177 -512.000000 -78.927329
-1490.129339 -512.000000 -79.833688
-1488.346501 -512.000000 -80.740047
-1486.563662 -512.000000 -81.646406
-1484.780824 -512.000000 -82.552766
-1482.997985 -512.000000 -83.459125
-1481.215147 -512.000000 -84.365484
-1479.432308 -512.000000 -85.271843
-1477.649470 -512.000000 -86.178203
-1475.866631 -512.000000 -87.084562
-1474.083793 -512.000000 -87.990921
-1472.300954 -512.000000 -88.897280
-1470.518116 -512.000000 -89.803639
-1468.735277 -512.000000 -90.709999
-1466.952439 -512.000000 -91.616358
-1465.169601 -512.000000 -92.522717
-1463.386762 -512.000000 -93.429076
-1461.603924 -512.000000 -94.335435
-1459.821085 -512.000000 -95.241795
-1458.038247 -512.000000 -96.148154
-1456.255408 -512.000000 -97.054513
-1454.472570 -512.000000 -97.960872
-1452.689731 -512.000000 -98.867232
-1450.906893 -512.000000 -99.773591
-1449.124054 -512.000000 -100.679950
-1447.341216 -512.000000 -101.586309
-1445.558377 -512.000000 -102.492668
-1443.775539 -512.000000 -103.399028
-1441.992701 -512.000000 -104.305387
-1440.209862 -512.000000 -105.211746
-1438.427024 -512.000000 -106.118105
-1436.644185 -512.000000 -107.024465
-1434.861347 -512.000000 -107.930824
-1433.078508 -512.000000 -108.837183
-1431.295670 -512.000000 -109.743542
-1429.512831 -512.000000 -110.649901
-1427.729993 -512.000000 -111.556261
-1425.947154 -512.000000 -112.462620
-1424.164316 -512.000000 -113.368979
-1422.381478 -512.000000 -114.275338
-1420.598639 -512.000000 -115.181697
-1418.815801 -512.000000 -116.088057
-1417.032962 -512.000000 -116.994416
-1415.250124 -512.000000 -117.900775
-1413.467285 -512.000000 -118.807134
-1411.684447 -512.000000 -119.713494
-1409.901608 -512.000000 -120.619853
-1408.118770 -512.000000 -121.526212
-1406.335931 -512.000000 -122.432571
-1404.553093 -512.000000 -123.338930
-1402.770254 -512.000000 -124.245290
-1400.987416 -512.000000 -125.151649
-1399.204578 -512.000000 -126.058008
-1397.421739 -512.000000 -126.964367
-1395.638901 -512.000000 -127.870726
-1393.856062 -512.000000 -128.777086
-1392.073224 -512.000000 -129.683445
-1390.290385 -512.000000 -130.589804
-1388.507547 -512.000000 -131.496163
-1386.724708 -512.000000 -132.402523
-1384.941870 -512.000000 -133.308882
-1383.159031 -512.000000 -134.215241
-1381.376193 -512.000000 -135.121600
-1379.593355 -512.000000 -136.027959
-1377.810516 -512.000000 -136.934319
-1376.027678 -512.000000 -137.840678
-1374.244839 -512.000000 -138.747037
-1372.462001 -512.000000 -139.653396
-1370.679162 -512.000000 -140.559756
-1368.896324 -512.000000 -141.466115
-1367.113485 -512.000000 -142.372474
-1365.330647 -512.000000 -143.278833
-1363.547808 -512.000000 -144.185192
-1361.764970 -512.000000 -145.091552
-1359.982131 -512.000000 -145.997911
-1358.199293 -512.000000 -146.904270
-1356.416455 -512.000000 -147.810629
-1354.633616 -512.000000 -148.716988
-1352.850778 -512.000000 -149.623348
-1351.067939 -512.000000 -150.529707
-1349.285101 -512.000000 -151.436066
-1347.502262 -512.000000 -152.342425
-1345.719424 -512.000000 -153.248785
-1343.936585 -512.000000 -154.155144
-1342.153747 -512.000000 -155.061503
-1340.370908 -512.000000 -155.967862
-1338.588070 -512.000000 -156.874221
-1336.805232 -512.000000 -157.780581
-1335.022393 -512.000000 -158.686940
-1333.239555 -512.000000 -159.593299
-1331.456716 -512.000000 -160.499658
-1329.673878 -512.000000 -161.406017
-1327.891039 -512.000000 -162.312377
-1326.108201 -512.000000 -163.218736
-1324.325362 -512.000000 -164.125095
-1322.542524 -512.000000 -165.031454
-1320.759685 -512.000000 -165.937814
-1318.976847 -512.000000 -166.844173
-1317.194008 -512.000000 -167.750532
-1315.411170 -512.000000 -168.656891
-1313.628332 -512.000000 -169.563250
-1311.845493 -512.000000 -170.469610
-1310.062655 -512.000000 -171.375969
-1308.279816 -512.000000 -172.282328
-1306.496978 -512.000000 -173.188687
-1304.714139 -512.000000 -174.095047
-1302.931301 -512.000000 -175.001406
-1301.148462 -512.000000 -175.907765
-1299.365624 -512.000000 -176.814124
-1297.582785 -512.000000 -177.720483
-1295.799947 -512.000000 -178.626843
-1294.017108 -512.000000 -179.533202
-1292.234270 -512.000000 -180.439561
-1290.451432 -512.000000 -181.345920
-1288.668593 -512.000000 -182.252279
-1286.885755 -512.000000 -183.158639
-1285.102916 -512.000000 -184.064998
-1283.320078 -512.000000 -184.971357
-1281.537239 -512.000000 -185.877716
-1279.754401 -512.000000 -186.784076
-1277.971562 -512.000000 -187.690435
-1276.188724 -512.000000 -188.596794
-1274.405885 -512.000000 -189.503153
-1272.623047 -512.000000 -190.409512
-1270.840209 -512.000000 -191.315872
-1269.057370 -512.000000 -192.222231
-1267.274532 -512.000000 -193.128590
-1265.491693 -512.000000 -194.034949
-1263.708855 -512.000000 -194.941309
-1261.926016 -512.000000 -195.847668
-1260.143178 -512.000000 -196.754027
-1258.360339 -512.000000 -197.660386
-1256.577501 -512.000000 -198.566745
-1254.794662 -512.000000 -199.473105
-1253.011824 -512.000000 -200.379464
-1251.228985 -512.000000 -201.285823
